ply
format ascii 1.0
comment PCL generated
element vertex 1591
property float x
property float y
property float z
element camera 0
property float view_px
property float view_py
property float view_pz
property float x_axisx
property float x_axisy
property float x_axisz
property float y_axisx
property float y_axisy
property float y_axisz
property float z_axisx
property float z_axisy
property float z_axisz
property float focal
property float scalex
property float scaley
property float centerx
property float centery
property int viewportx
property int viewporty
property float k1
property float k2
end_header
-7.2512498 -11.960625 24.905624
-7.2506251 -11.855 24.899376
-7.2506251 -11.75 24.899376
-7.2506251 -11.644375 24.899376
-7.2512498 -11.535625 24.895624
-7.254375 -11.43 24.870625
-7.2550001 -11.325 24.866875
-7.254375 -11.22 24.86375
-7.2518749 -11.114375 24.844999
-7.2512498 -11.00875 24.835625
-7.2531252 -10.90125 24.82
-7.2493749 -10.795 24.791876
-7.2468748 -10.689375 24.773125
-7.2481251 -10.580625 24.748125
-7.2449999 -10.475 24.72625
-7.2449999 -10.369375 24.719999
-7.2474999 -10.260625 24.695
-7.245625 -10.155 24.67
-7.2481251 -10.05 24.651251
-7.2468748 -9.944375 24.635626
-7.2375002 -9.8362503 24.600624
-7.2350001 -9.7299995 24.5875
-7.2325001 -9.625 24.565624
-7.2350001 -9.5193748 24.546249
-7.2362499 -9.4106255 24.540001
-7.2368751 -9.3050003 24.536875
-7.2399998 -9.1999998 24.52125
-7.2406249 -9.0950003 24.518126
-7.2393751 -8.9899998 24.511875
-7.2393751 -8.8850002 24.511875
-7.2399998 -8.7799997 24.514999
-7.2399998 -8.6743746 24.52125
-7.2399998 -8.5656252 24.5525
-7.2406249 -8.46 24.561874
-7.2406249 -8.3549995 24.571875
-7.2449999 -8.25 24.625626
-7.2506251 -8.1450005 24.691875
-7.254375 -8.04 24.77
-7.2556248 -7.9349999 24.86125
-7.2593751 -7.8299999 24.921249
-7.2662501 -7.7249999 25.009375
-7.2750001 -7.620625 25.144375
-7.1550002 -19.535 28.800625
-7.1475 -19.420626 28.629999
-7.1443748 -19.309999 28.512501
-7.1381249 -19.200001 28.39625
-7.1387501 -19.09 28.304375
-7.1387501 -18.979376 28.206249
-7.1343751 -18.865625 28.08625
-7.1343751 -18.755625 27.997499
-7.1343751 -18.645 27.893126
-7.1356249 -18.535 27.766874
-7.1356249 -18.424376 27.624374
-7.1393752 -18.310625 27.491249
-7.1399999 -18.199375 27.36125
-7.1356249 -18.085625 27.229376
-7.1268749 -17.975 27.092501
-7.11375 -17.865 26.934376
-7.1118751 -17.753124 26.729376
-7.1193752 -17.63625 26.5175
-7.129375 -17.525 26.346874
-7.1374998 -17.41375 26.185625
-7.1350002 -17.296249 25.99375
-7.13375 -17.186251 25.845625
-7.1281252 -17.078751 25.710625
-7.1224999 -16.96875 25.5625
-7.1231251 -16.855625 25.428125
-7.1156249 -16.745001 25.27
-7.109375 -16.635 25.173124
-7.1056252 -16.525625 25.096874
-7.1081252 -16.418751 25.018749
-7.1075001 -16.309999 24.92375
-7.1018748 -16.20125 24.861876
-7.0993748 -16.09375 24.835625
-7.100625 -15.985625 24.785625
-7.1037502 -15.879375 24.72625
-7.1037502 -15.770625 24.713751
-7.1012502 -15.665 24.695
-7.1018748 -15.56 24.685625
-7.1037502 -15.45375 24.660625
-7.1043749 -15.345 24.619375
-7.1031251 -15.23875 24.610001
-7.0974998 -15.13125 24.5975
-7.0931249 -15.0275 24.6
-7.0843749 -14.920625 24.56875
-7.0812502 -14.815 24.561874
-7.0812502 -14.709375 24.561874
-7.0825 -14.600625 24.56875
-7.0862498 -14.495 24.591249
-7.0875001 -14.39 24.6075
-7.0900002 -14.285625 24.648125
-7.0900002 -14.183125 24.688749
-7.0900002 -14.075625 24.70125
-7.0912499 -13.97 24.73875
-7.0943751 -13.865625 24.773125
-7.0925002 -13.76 24.795
-7.0943751 -13.655 24.823126
-7.09375 -13.55 24.855625
-7.0962501 -13.445 24.9175
-7.0987501 -13.340625 24.96875
-7.100625 -13.235 24.975
-7.1075001 -13.13 24.978125
-7.1087499 -13.025 24.978125
-7.1081252 -12.919375 24.981251
-7.1056252 -12.810625 24.99375
-7.105 -12.705 24.996876
-7.105 -12.6 24.996876
-7.1043749 -12.494375 24.99375
-7.1037502 -12.385625 24.990625
-7.0999999 -12.28 24.971874
-7.0993748 -12.175 24.96875
-7.0993748 -12.069375 24.965626
-7.0993748 -11.96125 24.93125
-7.0993748 -11.855625 24.924999
-7.0993748 -11.75 24.924999
-7.0993748 -11.644375 24.924999
-7.0993748 -11.53625 24.918125
-7.100625 -11.43 24.883751
-7.0999999 -11.325 24.873751
-7.0999999 -11.22 24.873751
-7.098125 -11.115 24.86375
-7.0956249 -11.01 24.85125
-7.0949998 -10.90375 24.838751
-7.0918751 -10.795625 24.804375
-7.0900002 -10.689375 24.78875
-7.0931249 -10.580625 24.766874
-7.0900002 -10.475 24.745001
-7.0900002 -10.369375 24.7325
-7.0912499 -10.260625 24.70125
-7.0925002 -10.155 24.67625
-7.09375 -10.05 24.66375
-7.0912499 -9.9449997 24.645
-7.0856252 -9.8387499 24.616875
-7.0843749 -9.7312498 24.5975
-7.0818748 -9.6256247 24.5725
-7.085 -9.5193748 24.549999
-7.085 -9.4106255 24.543125
-7.085 -9.3050003 24.543125
-7.0856252 -9.1999998 24.540001
-7.085 -9.0950003 24.536875
-7.0825 -8.9899998 24.524376
-7.0825 -8.8850002 24.524376
-7.085 -8.7799997 24.536875
-7.085 -8.6743746 24.543125
-7.0825 -8.5656252 24.561874
-7.0825 -8.46 24.56875
-7.0837498 -8.3549995 24.581875
-7.0912499 -8.25 24.638124
-7.0987501 -8.1450005 24.70125
-7.100625 -8.04 24.773125
-7.100625 -7.9349999 24.858126
-7.105 -7.8299999 24.911875
-7.1143751 -7.7249999 25.003124
-7.1243749 -7.620625 25.122499
-7.00875 -19.65 29.003124
-7.0006251 -19.535 28.79125
-6.993125 -19.420626 28.626249
-6.9899998 -19.309999 28.501249
-6.9831252 -19.200001 28.389376
-6.9787502 -19.09 28.291876
-6.9806252 -18.979376 28.199375
-6.9812498 -18.865625 28.083124
-6.9806252 -18.754999 27.981874
-6.9825001 -18.645 27.873751
-6.9868751 -18.535 27.760626
-6.9831252 -18.42375 27.633751
-6.9856248 -18.310625 27.506874
-6.9875002 -18.199375 27.374374
-6.9793749 -18.085625 27.247499
-6.9693751 -17.975624 27.103125
-6.9537501 -17.865 26.94125
-6.9518752 -17.75375 26.7425
-6.9581251 -17.63625 26.533125
-6.96875 -17.525 26.356251
-6.9775 -17.41375 26.191875
-6.9762502 -17.297501 26.009375
-6.9743748 -17.188749 25.88625
-6.9712501 -17.08 25.751875
-6.96875 -16.969376 25.5975
-6.96875 -16.855625 25.471251
-6.9606252 -16.745625 25.318125
-6.9549999 -16.635626 25.209999
-6.9512501 -16.525625 25.125626
-6.9543748 -16.419374 25.046875
-6.9549999 -16.310625 24.9625
-6.94875 -16.203751 24.9175
-6.9393749 -16.094999 24.868126
-6.9406252 -15.98625 24.80125
-6.944375 -15.879375 24.735624
-6.9456248 -15.770625 24.723125
-6.9450002 -15.665 24.719999
-6.9456248 -15.56 24.716875
-6.9506249 -15.454375 24.685625
-6.9543748 -15.345625 24.635626
-6.9543748 -15.239375 24.623125
-6.94875 -15.13125 24.604376
-6.9412498 -15.02625 24.600624
-6.9343748 -14.92 24.578751
-6.933125 -14.815 24.578125
-6.933125 -14.709375 24.578125
-6.9343748 -14.60125 24.578751
-6.9381251 -14.495 24.606874
-6.9381251 -14.39 24.63875
-6.9356251 -14.28625 24.673124
-6.9349999 -14.18375 24.713751
-6.9349999 -14.075625 24.72625
-6.9362502 -13.970625 24.76375
-6.9406252 -13.868125 24.78875
-6.9400001 -13.760625 24.804375
-6.9412498 -13.655 24.845625
-6.9431248 -13.55 24.895624
-6.944375 -13.445625 24.950001
-6.9456248 -13.343125 24.990625
-6.9468751 -13.235625 24.996876
-6.953125 -13.13 24.996876
-6.9543748 -13.025 24.996876
-6.9543748 -12.919375 24.996876
-6.9537501 -12.810625 25
-6.9537501 -12.705 25
-6.953125 -12.6 24.996876
-6.9499998 -12.494375 24.981251
-6.94875 -12.385625 24.975
-6.9456248 -12.28 24.959375
-6.944375 -12.175 24.959375
-6.9425001 -12.07 24.96875
-6.944375 -11.964375 24.953125
-6.9450002 -11.85875 24.950001
-6.9450002 -11.750625 24.950001
-6.9450002 -11.645 24.950001
-6.9456248 -11.53875 24.946875
-6.9468751 -11.43125 24.921249
-6.9450002 -11.325625 24.905624
-6.944375 -11.22 24.895624
-6.9412498 -11.115 24.877501
-6.9393749 -11.01 24.866875
-6.9393749 -10.904375 24.860624
-6.9381251 -10.79625 24.823126
-6.933125 -10.689375 24.798124
-6.9343748 -10.580625 24.776251
-6.9312501 -10.475 24.751249
-6.9343748 -10.369375 24.729376
-6.9349999 -10.260625 24.713751
-6.933125 -10.155 24.691875
-6.9356251 -10.05 24.673124
-6.9381251 -9.9449997 24.648125
-6.9349999 -9.8400002 24.626249
-6.9343748 -9.734375 24.620001
-6.9343748 -9.6287498 24.613125
-6.9381251 -9.5200005 24.5875
-6.9356251 -9.4106255 24.565624
-6.9349999 -9.3050003 24.561874
-6.9343748 -9.1999998 24.565624
-6.9343748 -9.0950003 24.565624
-6.9337502 -8.9899998 24.5625
-6.9337502 -8.8850002 24.5625
-6.9343748 -8.7799997 24.565624
-6.9343748 -8.6743746 24.565624
-6.9356251 -8.5662498 24.575624
-6.9375 -8.4606247 24.596874
-6.9387498 -8.3549995 24.616249
-6.9437499 -8.25 24.654375
-6.9481249 -8.1450005 24.713751
-6.9481249 -8.04 24.773125
-6.9468751 -7.9349999 24.845625
-6.9481249 -7.8299999 24.908751
-6.9549999 -7.7249999 25.018749
-6.9612498 -7.620625 25.147499
-6.9668751 -7.5193748 25.320625
-6.8543749 -19.65 28.986876
-6.8449998 -19.535 28.800625
-6.8343749 -19.420626 28.645624
-6.8325 -19.309999 28.515625
-6.8262501 -19.200001 28.393126
-6.8243752 -19.089375 28.281876
-6.8243752 -18.979376 28.18125
-6.8225002 -18.865625 28.079374
-6.8262501 -18.754999 27.981251
-6.8331251 -18.645 27.849375
-6.8381252 -18.534374 27.731874
-6.8337498 -18.421249 27.618126
-6.8337498 -18.309999 27.50375
-6.8325 -18.199375 27.365
-6.8225002 -18.08625 27.251249
-6.8150001 -17.977501 27.115625
-6.8024998 -17.865625 26.960625
-6.80125 -17.75375 26.772499
-6.8043752 -17.63625 26.55875
-6.8087502 -17.525 26.375
-6.8150001 -17.414375 26.213751
-6.8181248 -17.299999 26.050625
-6.8150001 -17.190001 25.924376
-6.8131251 -17.08 25.781876
-6.8106251 -16.969376 25.6325
-6.8125 -16.856874 25.509375
-6.805625 -16.748751 25.377501
-6.7993751 -16.63875 25.2575
-6.7962499 -16.526875 25.157499
-6.7993751 -16.419374 25.075001
-6.8018751 -16.311251 25.003124
-6.7981248 -16.204374 24.965626
-6.7868748 -16.095625 24.905001
-6.785625 -15.98875 24.843124
-6.7868748 -15.880625 24.779375
-6.7893748 -15.77125 24.7575
-6.79 -15.665625 24.748125
-6.7925 -15.56 24.735624
-6.7993751 -15.454375 24.70125
-6.80375 -15.345625 24.673124
-6.80375 -15.24 24.666876
-6.7981248 -15.134375 24.651251
-6.7893748 -15.02875 24.645
-6.7818751 -14.92125 24.644375
-6.7781248 -14.815625 24.656876
-6.7775002 -14.710625 24.66
-6.7800002 -14.60375 24.653749
-6.7843752 -14.49625 24.66375
-6.7843752 -14.39125 24.67625
-6.7818751 -14.28875 24.70125
-6.7806249 -14.184375 24.73875
-6.78125 -14.075625 24.748125
-6.7849998 -13.97125 24.776251
-6.7912502 -13.86875 24.80125
-6.79 -13.760625 24.823126
-6.7893748 -13.655 24.87125
-6.7906251 -13.55 24.921249
-6.7906251 -13.445625 24.965626
-6.7937498 -13.343125 24.99375
-6.7943749 -13.235625 24.996876
-6.7950001 -13.13 25
-6.7950001 -13.025 25
-6.7950001 -12.919375 25
-6.7950001 -12.810625 25
-6.7950001 -12.705 25
-6.7943749 -12.6 24.996876
-6.7906251 -12.494375 24.978125
-6.79 -12.385625 24.975
-6.7893748 -12.28 24.971874
-6.79 -12.175 24.975
-6.7893748 -12.07 24.978125
-6.79 -11.965 24.975
-6.7893748 -11.859375 24.971874
-6.79 -11.750625 24.96875
-6.79 -11.645 24.96875
-6.7893748 -11.54 24.965626
-6.7868748 -11.434375 24.953125
-6.785625 -11.32875 24.940624
-6.788125 -11.220625 24.921875
-6.7843752 -11.115 24.895624
-6.78125 -11.01 24.877501
-6.78125 -10.905 24.870625
-6.7831249 -10.79875 24.841875
-6.7806249 -10.69 24.82
-6.7793751 -10.580625 24.810625
-6.7750001 -10.475 24.78875
-6.7806249 -10.369375 24.751249
-6.7837501 -10.26125 24.723125
-6.7806249 -10.155 24.70125
-6.78125 -10.05 24.691875
-6.7843752 -9.9449997 24.67
-6.78125 -9.8400002 24.648125
-6.78125 -9.7349997 24.641874
-6.7824998 -9.6293755 24.635626
-6.7874999 -9.5206251 24.60375
-6.7843752 -9.4112501 24.575624
-6.7837501 -9.305625 24.575624
-6.78125 -9.2006254 24.590626
-6.7806249 -9.0956249 24.594376
-6.7806249 -8.9899998 24.594376
-6.7806249 -8.8850002 24.594376
-6.7806249 -8.7799997 24.594376
-6.7818751 -8.6750002 24.594376
-6.7862501 -8.5687504 24.610001
-6.7849998 -8.4637499 24.635626
-6.7849998 -8.3556252 24.645
-6.7887502 -8.25 24.67
-6.7912502 -8.1450005 24.723125
-6.7925 -8.04 24.776251
-6.7975001 -7.9349999 24.845625
-6.7987499 -7.8299999 24.908751
-6.7993751 -7.7249999 25.015625
-6.80125 -7.620625 25.150625
-6.8074999 -7.5193748 25.311251
-6.6999998 -19.65 28.969376
-6.6925001 -19.535 28.799999
-6.6799998 -19.420626 28.64875
-6.6756248 -19.309999 28.512501
-6.6681252 -19.199375 28.383125
-6.6693749 -19.086876 28.263124
-6.6693749 -18.978125 28.155624
-6.6675 -18.865625 28.053749
-6.6737499 -18.754999 27.950001
-6.680625 -18.645 27.83
-6.683125 -18.534374 27.731874
-6.6768751 -18.420626 27.615
-6.6756248 -18.309999 27.500626
-6.6756248 -18.199375 27.361876
-6.6712499 -18.085625 27.244375
-6.6681252 -17.975624 27.099375
-6.6581249 -17.865 26.940624
-6.65625 -17.75375 26.76125
-6.65625 -17.636875 26.561251
-6.6587501 -17.525 26.38125
-6.6587501 -17.414375 26.226875
-6.6581249 -17.300625 26.081249
-6.6531248 -17.190001 25.924376
-6.6506252 -17.08 25.77125
-6.6487498 -16.969999 25.638124
-6.6537499 -16.858749 25.528126
-6.6487498 -16.75 25.415001
-6.6418748 -16.639999 25.305
-6.6399999 -16.529375 25.200624
-6.640625 -16.420626 25.10375
-6.6424999 -16.313749 25.03125
-6.6431251 -16.205 24.99375
-6.6374998 -16.095625 24.946875
-6.63625 -15.99 24.895624
-6.6343751 -15.88375 24.845625
-6.6350002 -15.775 24.829374
-6.6368752 -15.66875 24.795
-6.6437502 -15.56125 24.754375
-6.6487498 -15.454375 24.723125
-6.6500001 -15.345625 24.716875
-6.6475 -15.24 24.716875
-6.6393752 -15.135 24.7075
-6.6343751 -15.03 24.695
-6.6325002 -14.924375 24.691875
-6.631875 -14.819375 24.70125
-6.6287498 -14.71375 24.716875
-6.6268749 -14.605625 24.72625
-6.629375 -14.499375 24.719999
-6.6306248 -14.394375 24.719999
-6.631875 -14.29 24.745001
-6.629375 -14.184375 24.77
-6.6287498 -14.076875 24.779375
-6.6306248 -13.97375 24.813749
-6.6350002 -13.869375 24.838751
-6.6343751 -13.76125 24.855625
-6.63625 -13.655 24.895624
-6.6381249 -13.55 24.924999
-6.6368752 -13.445 24.956249
-6.6393752 -13.340625 24.975
-6.6393752 -13.235 24.981251
-6.63625 -13.13 24.996876
-6.6356249 -13.025 25
-6.6356249 -12.919375 25
-6.6356249 -12.810625 25
-6.6356249 -12.705 25
-6.6350002 -12.6 24.996876
-6.631875 -12.494375 24.981251
-6.6312499 -12.385625 24.978125
-6.631875 -12.28 24.981251
-6.6343751 -12.175 24.99375
-6.6356249 -12.07 24.99375
-6.6350002 -11.965 24.990625
-6.6325002 -11.859375 24.971874
-6.6343751 -11.750625 24.956249
-6.6350002 -11.645 24.953125
-6.6343751 -11.54 24.956249
-6.6306248 -11.435 24.9625
-6.6268749 -11.32875 24.946875
-6.6287498 -11.220625 24.924999
-6.6268749 -11.115 24.903126
-6.6256251 -11.01 24.89625
-6.6256251 -10.905 24.889376
-6.6268749 -10.799375 24.848749
-6.6287498 -10.69 24.82625
-6.6300001 -10.580625 24.82
-6.6287498 -10.475 24.810625
-6.6331248 -10.37 24.782499
-6.6343751 -10.26375 24.745001
-6.6306248 -10.155625 24.719999
-6.6306248 -10.05 24.713751
-6.6331248 -9.9449997 24.695
-6.6306248 -9.8400002 24.67
-6.6331248 -9.7349997 24.651251
-6.63375 -9.6300001 24.648125
-6.63375 -9.5237503 24.63875
-6.6287498 -9.415 24.622499
-6.6300001 -9.3093748 24.619375
-6.6300001 -9.2043753 24.623125
-6.629375 -9.0987501 24.620001
-6.629375 -8.9906254 24.620001
-6.6300001 -8.8850002 24.616875
-6.6300001 -8.7799997 24.61375
-6.6300001 -8.6743746 24.60125
-6.6300001 -8.5675001 24.610624
-6.6275001 -8.4637499 24.641874
-6.6268749 -8.3556252 24.654375
-6.6325002 -8.25 24.682501
-6.6381249 -8.1450005 24.741875
-6.6399999 -8.04 24.798124
-6.6443748 -7.9349999 24.868126
-6.6443748 -7.8299999 24.93375
-6.6424999 -7.7249999 25.040625
-6.6462498 -7.620625 25.156876
-6.651875 -7.5193748 25.2925
-6.5443749 -19.65 28.98
-6.5349998 -19.535 28.800625
-6.5231252 -19.420626 28.63875
-6.5218749 -19.309999 28.478125
-6.515625 -19.19875 28.342501
-6.5143752 -19.085625 28.237499
-6.5143752 -18.975624 28.133125
-6.5149999 -18.864374 28.026251
-6.5206251 -18.754999 27.9275
-6.526875 -18.644375 27.817499
-6.526875 -18.534374 27.715626
-6.5206251 -18.420626 27.596251
-6.52 -18.309999 27.485001
-6.5218749 -18.199375 27.351875
-6.5237498 -18.085625 27.2225
-6.524375 -17.975 27.070625
-6.5193748 -17.865 26.915625
-6.5174999 -17.754375 26.75375
-6.5124998 -17.63875 26.57375
-6.5137501 -17.525625 26.4
-6.51125 -17.414375 26.245625
-6.5031252 -17.300625 26.094376
-6.4993749 -17.190001 25.9375
-6.4974999 -17.08 25.78875
-6.495625 -16.969376 25.645
-6.4981251 -16.8575 25.515625
-6.49125 -16.749374 25.4025
-6.4868751 -16.640625 25.326876
-6.4856248 -16.530001 25.235624
-6.4856248 -16.421249 25.13875
-6.4875002 -16.314375 25.059376
-6.4899998 -16.205 25.009375
-6.4924998 -16.095625 24.971874
-6.49125 -15.99 24.924376
-6.4831252 -15.884375 24.880625
-6.4831252 -15.775625 24.86375
-6.4868751 -15.67 24.838751
-6.493125 -15.56375 24.795
-6.4943752 -15.455625 24.7575
-6.4924998 -15.34625 24.748125
-6.4856248 -15.240625 24.745001
-6.4749999 -15.135625 24.729376
-6.4718752 -15.03 24.719999
-6.4724998 -14.925 24.723125
-6.4762502 -14.82 24.735624
-6.4762502 -14.714375 24.741875
-6.475625 -14.605625 24.745001
-6.4762502 -14.5 24.748125
-6.4762502 -14.395 24.754375
-6.475625 -14.29 24.78875
-6.4724998 -14.185625 24.816875
-6.4724998 -14.079375 24.823126
-6.475625 -13.975 24.844999
-6.4787502 -13.87 24.874374
-6.4775 -13.76375 24.89875
-6.4825001 -13.655625 24.924999
-6.484375 -13.55 24.9375
-6.484375 -13.445625 24.96875
-6.4850001 -13.340625 24.978125
-6.484375 -13.235 24.981251
-6.4806252 -13.13 25
-6.48 -13.025 25.003124
-6.48 -12.919375 25.003124
-6.48 -12.810625 25.003124
-6.48 -12.705 25.003124
-6.48 -12.6 25.003124
-6.4787502 -12.494375 24.996876
-6.4787502 -12.385625 24.996876
-6.4787502 -12.28 24.996876
-6.48 -12.175 24.996876
-6.4831252 -12.07 24.981251
-6.4831252 -11.965 24.975
-6.48 -11.859375 24.959375
-6.48 -11.750625 24.953125
-6.48 -11.645 24.953125
-6.48 -11.54 24.953125
-6.4775 -11.434375 24.950001
-6.4718752 -11.326875 24.934376
-6.4718752 -11.220625 24.924999
-6.4743748 -11.115 24.90625
-6.475625 -11.01 24.9
-6.475625 -10.905 24.893126
-6.4749999 -10.799375 24.855
-6.475625 -10.69 24.838751
-6.4781251 -10.580625 24.82
-6.4768748 -10.475 24.80125
-6.4806252 -10.37 24.776251
-6.4831252 -10.264375 24.745001
-6.48 -10.155625 24.723125
-6.4793749 -10.05 24.719999
-6.4793749 -9.9449997 24.713751
-6.4768748 -9.8400002 24.695
-6.48 -9.7349997 24.673124
-6.4793749 -9.6300001 24.666876
-6.4793749 -9.524375 24.666876
-6.4793749 -9.4156246 24.666876
-6.48 -9.3100004 24.666876
-6.4793749 -9.2049999 24.66375
-6.475625 -9.0993748 24.648125
-6.475625 -8.9906254 24.641874
-6.4787502 -8.8850002 24.626249
-6.4787502 -8.7799997 24.620001
-6.4781251 -8.6750002 24.620001
-6.4762502 -8.569375 24.641874
-6.4781251 -8.4643745 24.67
-6.4781251 -8.3556252 24.691875
-6.4831252 -8.2506247 24.723125
-6.4856248 -8.1450005 24.773125
-6.4862499 -8.04 24.826876
-6.48875 -7.9349999 24.89875
-6.48875 -7.8306251 24.956249
-6.49125 -7.7249999 25.05625
-6.4981251 -7.620625 25.169374
-6.5012498 -7.5193748 25.295626
-6.3874998 -19.65 28.966249
-6.3781252 -19.535 28.784374
-6.36625 -19.420626 28.623125
-6.3643751 -19.309376 28.465
-6.3606248 -19.196875 28.32625
-6.3568749 -19.084999 28.231251
-6.3568749 -18.974375 28.126875
-6.3606248 -18.861876 28.01
-6.3643751 -18.75375 27.915001
-6.3649998 -18.641874 27.80125
-6.3618751 -18.533751 27.694374
-6.3606248 -18.420626 27.58625
-6.3600001 -18.309999 27.475624
-6.359375 -18.199375 27.333124
-6.3693752 -18.085625 27.196875
-6.3775001 -17.975 27.048124
-6.3768749 -17.865 26.893126
-6.3743749 -17.753124 26.731874
-6.368125 -17.636875 26.558125
-6.36375 -17.525 26.403126
-6.3587499 -17.414375 26.26125
-6.3518748 -17.300625 26.10375
-6.350625 -17.190001 25.950001
-6.3518748 -17.080626 25.817499
-6.3468752 -16.970625 25.682501
-6.34375 -16.859375 25.546875
-6.336875 -16.750626 25.440624
-6.3375001 -16.643126 25.376875
-6.3343749 -16.531876 25.305
-6.3299999 -16.42375 25.2225
-6.3274999 -16.315624 25.125626
-6.3312502 -16.205 25.046875
-6.3387499 -16.095625 24.996876
-6.339375 -15.99 24.956249
-6.335 -15.884375 24.92375
-6.3412499 -15.775625 24.883751
-6.3418751 -15.67 24.86375
-6.3400002 -15.565 24.841875
-6.335 -15.45875 24.810625
-6.3312502 -15.35 24.791876
-6.3287501 -15.244375 24.785625
-6.3231249 -15.13875 24.77
-6.3200002 -15.03125 24.748125
-6.3206248 -14.925 24.745001
-6.3262501 -14.82 24.748125
-6.3274999 -14.714375 24.748125
-6.3274999 -14.60625 24.754375
-6.328125 -14.5 24.782499
-6.328125 -14.395 24.795
-6.3262501 -14.290625 24.823126
-6.3243752 -14.188125 24.8575
-6.3243752 -14.080625 24.86375
-6.3243752 -13.975 24.877501
-6.3249998 -13.87 24.914375
-6.3218751 -13.764375 24.94375
-6.3256249 -13.65625 24.96875
-6.3268752 -13.55125 24.975
-6.3293748 -13.44875 24.99375
-6.3299999 -13.34375 24.996876
-6.3293748 -13.235625 25
-6.3268752 -13.13 25.018749
-6.3262501 -13.025 25.021875
-6.3262501 -12.919375 25.021875
-6.3256249 -12.810625 25.025
-6.3256249 -12.705 25.025
-6.3249998 -12.6 25.021875
-6.3218751 -12.494375 25.00625
-6.32125 -12.385625 25.003124
-6.3218751 -12.28 25
-6.3225002 -12.175 24.996876
-6.3256249 -12.07 24.981251
-6.3262501 -11.965 24.978125
-6.3256249 -11.859375 24.975
-6.3256249 -11.750625 24.975
-6.3256249 -11.645 24.975
-6.3249998 -11.54 24.971874
-6.32125 -11.435 24.956249
-6.319375 -11.329375 24.950001
-6.3206248 -11.22375 24.94375
-6.3249998 -11.115625 24.921875
-6.328125 -11.01 24.899376
-6.328125 -10.905 24.8925
-6.3249998 -10.799375 24.8675
-6.3218751 -10.69 24.844999
-6.3249998 -10.580625 24.823126
-6.3249998 -10.475 24.810625
-6.3287501 -10.37 24.785625
-6.3287501 -10.264375 24.748125
-6.3249998 -10.155625 24.723125
-6.3243752 -10.05 24.719999
-6.3249998 -9.9449997 24.716875
-6.3249998 -9.8400002 24.710625
-6.3268752 -9.7349997 24.691875
-6.3225002 -9.6300001 24.67625
-6.3225002 -9.524375 24.67625
-6.3274999 -9.4156246 24.688749
-6.3287501 -9.3100004 24.691875
-6.3274999 -9.2049999 24.688749
-6.3225002 -9.0993748 24.67
-6.3218751 -8.9906254 24.66375
-6.3243752 -8.8850002 24.645
-6.32125 -8.7799997 24.629375
-6.3206248 -8.6750002 24.6325
-6.3225002 -8.5699997 24.66375
-6.3293748 -8.4643745 24.691875
-6.3318748 -8.3562498 24.719999
-6.3337498 -8.2531252 24.76375
-6.3343749 -8.1456251 24.816875
-6.3331251 -8.04 24.8675
-6.3299999 -7.9356251 24.936874
-6.3293748 -7.8331251 24.984375
-6.3387499 -7.725625 25.075001
-6.3474998 -7.620625 25.182501
-6.3474998 -7.5193748 25.314375
-6.2243748 -19.65 28.99
-6.2156248 -19.535 28.797501
-6.2081251 -19.420626 28.623125
-6.2068748 -19.309999 28.468124
-6.2075 -19.19875 28.335625
-6.2062502 -19.085625 28.227501
-6.2056251 -18.974375 28.120625
-6.2087498 -18.86125 28.000626
-6.2087498 -18.753124 27.899376
-6.2056251 -18.641251 27.791876
-6.2018752 -18.533125 27.684376
-6.2037501 -18.420626 27.570625
-6.2043748 -18.309999 27.453751
-6.2037501 -18.199375 27.311251
-6.2156248 -18.085625 27.178125
-6.2287502 -17.975 27.03875
-6.2350001 -17.86375 26.883751
-6.2281251 -17.750626 26.709999
-6.2162499 -17.635626 26.539375
-6.2062502 -17.525 26.396875
-6.2018752 -17.414375 26.2675
-6.2012501 -17.30125 26.138124
-6.1993752 -17.19125 25.990625
-6.2018752 -17.08375 25.86125
-6.1968751 -16.973749 25.7325
-6.1906252 -16.860624 25.606874
-6.1824999 -16.751249 25.508751
-6.1837502 -16.644375 25.430626
-6.1812501 -16.534374 25.3675
-6.1756248 -16.42625 25.291876
-6.171875 -16.318125 25.17625
-6.17625 -16.206249 25.065624
-6.183125 -16.096251 25.018749
-6.183125 -15.990625 25
-6.17875 -15.885 24.984375
-6.1862502 -15.77625 24.92375
-6.1856251 -15.67 24.880625
-6.183125 -15.565 24.864374
-6.17625 -15.459375 24.829374
-6.1706252 -15.350625 24.804375
-6.1693749 -15.245 24.804375
-6.1668749 -15.14 24.804375
-6.165 -15.03375 24.776251
-6.1643748 -14.925625 24.773125
-6.1656251 -14.82 24.773125
-6.1662502 -14.715 24.77
-6.1668749 -14.60875 24.773125
-6.1706252 -14.500625 24.798124
-6.1743751 -14.395 24.816875
-6.1774998 -14.290625 24.841875
-6.1756248 -14.18875 24.870625
-6.1743751 -14.080625 24.877501
-6.1725001 -13.975 24.895624
-6.1737499 -13.87 24.928125
-6.1712499 -13.765 24.956249
-6.1737499 -13.65875 24.987499
-6.1743751 -13.55375 24.99375
-6.1750002 -13.449375 24.996876
-6.1750002 -13.344375 25.003124
-6.1756248 -13.235625 25.00625
-6.1774998 -13.13 25.021875
-6.1781249 -13.025 25.025
-6.1774998 -12.919375 25.028126
-6.1750002 -12.810625 25.040625
-6.1743751 -12.705 25.043751
-6.1731248 -12.6 25.043751
-6.1700001 -12.494375 25.028126
-6.1700001 -12.38625 25.021875
-6.1731248 -12.28 25.00625
-6.1737499 -12.175 25.003124
-6.1750002 -12.07 24.996876
-6.1750002 -11.965 24.996876
-6.1743751 -11.859375 24.99375
-6.1743751 -11.750625 24.99375
-6.1737499 -11.645 24.996876
-6.1725001 -11.54 24.99375
-6.1675 -11.435 24.975
-6.1668749 -11.33 24.96875
-6.1700001 -11.224375 24.953125
-6.1737499 -11.115625 24.921249
-6.1756248 -11.01 24.884375
-6.1756248 -10.905 24.877501
-6.1743751 -10.799375 24.86375
-6.1706252 -10.69 24.841875
-6.1725001 -10.580625 24.82
-6.1712499 -10.475 24.80125
-6.1737499 -10.37 24.776251
-6.1706252 -10.264375 24.748125
-6.1662502 -10.15625 24.72625
-6.1668749 -10.05 24.716875
-6.1693749 -9.9449997 24.704374
-6.1700001 -9.8400002 24.70125
-6.1706252 -9.7349997 24.698126
-6.1687498 -9.6300001 24.691875
-6.1687498 -9.524375 24.691875
-6.1706252 -9.4156246 24.698126
-6.1706252 -9.3100004 24.698126
-6.171875 -9.2049999 24.691875
-6.1731248 -9.0993748 24.67625
-6.1737499 -8.9906254 24.673124
-6.1731248 -8.8850002 24.67
-6.1662502 -8.7799997 24.666876
-6.1662502 -8.6750002 24.666876
-6.1731248 -8.5699997 24.67625
-6.17875 -8.4643745 24.695
-6.1768751 -8.3562498 24.723125
-6.1768751 -8.2537498 24.776875
-6.17875 -8.1456251 24.83625
-6.17625 -8.04 24.880625
-6.1725001 -7.9362502 24.949375
-6.1750002 -7.8337498 25.006874
-6.1849999 -7.725625 25.100624
-6.1937499 -7.6212502 25.206875
-6.1937499 -7.5193748 25.33375
-6.0612502 -19.650625 29.012501
-6.0568752 -19.535625 28.807501
-6.0574999 -19.420626 28.626249
-6.0543752 -19.309999 28.471251
-6.05375 -19.199375 28.335625
-6.0574999 -19.085625 28.19375
-6.0549998 -18.974375 28.088751
-6.05375 -18.860624 27.97875
-6.0506248 -18.750626 27.877501
-6.0487499 -18.639999 27.773125
-6.0456252 -18.530624 27.665625
-6.0462499 -18.42 27.557501
-6.0500002 -18.309999 27.44125
-6.0543752 -18.199375 27.308125
-6.0643749 -18.085625 27.171875
-6.07375 -17.974375 27.02
-6.0818748 -17.86125 26.858749
-6.0756249 -17.749374 26.688126
-6.0631251 -17.635626 26.52375
-6.0524998 -17.525 26.38125
-6.0450001 -17.415001 26.258125
-6.0418749 -17.304375 26.156876
-6.038125 -17.194374 26.018749
-6.0393748 -17.084999 25.8925
-6.0368748 -16.974375 25.764376
-6.0368748 -16.861876 25.644375
-6.03125 -16.75375 25.553125
-6.03125 -16.645 25.455626
-6.0324998 -16.535625 25.383125
-6.0256252 -16.428749 25.320625
-6.0212498 -16.32 25.2225
-6.024375 -16.209375 25.119375
-6.0262499 -16.100624 25.090626
-6.0250001 -15.994375 25.049999
-6.0212498 -15.888125 25.012501
-6.0256252 -15.779375 24.953125
-6.0250001 -15.67125 24.908751
-6.0237498 -15.565 24.895624
-6.0193748 -15.459375 24.868126
-6.0124998 -15.350625 24.844999
-6.0118752 -15.245 24.838751
-6.0131249 -15.14 24.82625
-6.0100002 -15.034375 24.804375
-6.006875 -14.925625 24.813749
-6.0075002 -14.82 24.810625
-6.0100002 -14.715 24.798124
-6.01125 -14.609375 24.798124
-6.0149999 -14.500625 24.810625
-6.0174999 -14.395 24.82
-6.0237498 -14.290625 24.845625
-6.0237498 -14.18875 24.889376
-6.0237498 -14.080625 24.89625
-6.0231252 -13.975 24.9125
-6.0231252 -13.87 24.94375
-6.02 -13.764375 24.965626
-6.0193748 -13.65625 24.978125
-6.0193748 -13.550625 24.978125
-6.0193748 -13.44625 24.984375
-6.02 -13.34375 25.012501
-6.02 -13.235625 25.018749
-6.0206251 -13.13 25.028126
-6.0206251 -13.025 25.028126
-6.0206251 -12.919375 25.028126
-6.0193748 -12.810625 25.034374
-6.0187502 -12.705 25.0375
-6.0162501 -12.6 25.049999
-6.015625 -12.495 25.046875
-6.0162501 -12.38875 25.043751
-6.0193748 -12.28125 25.028126
-6.02 -12.175 25.018749
-6.0225 -12.07 25.00625
-6.0225 -11.965 25
-6.02 -11.859375 24.987499
-6.0193748 -11.750625 24.984375
-6.0168748 -11.645 24.996876
-6.0168748 -11.54 24.996876
-6.0181251 -11.435 24.981251
-6.0181251 -11.33 24.975
-6.0187502 -11.224375 24.965626
-6.02 -11.115625 24.928125
-6.0231252 -11.01 24.899376
-6.0237498 -10.905 24.889376
-6.0225 -10.799375 24.851875
-6.0168748 -10.69 24.829374
-6.0168748 -10.580625 24.82
-6.0162501 -10.475 24.810625
-6.0187502 -10.37 24.791876
-6.015625 -10.265 24.77
-6.01125 -10.15875 24.745001
-6.0137501 -10.05125 24.72625
-6.0149999 -9.9456253 24.719999
-6.0149999 -9.8400002 24.719999
-6.0143752 -9.7349997 24.716875
-6.01125 -9.6300001 24.70125
-6.01125 -9.524375 24.70125
-6.0137501 -9.4156246 24.713751
-6.015625 -9.3100004 24.713751
-6.0187502 -9.2049999 24.698126
-6.02 -9.0993748 24.691875
-6.02 -8.9906254 24.691875
-6.0187502 -8.8850002 24.691875
-6.0118752 -8.7799997 24.695
-6.0118752 -8.6750002 24.695
-6.02 -8.5699997 24.691875
-6.026875 -8.4643745 24.70125
-6.0250001 -8.3568754 24.733749
-6.0237498 -8.2537498 24.7925
-6.024375 -8.1456251 24.849375
-6.0231252 -8.0406246 24.899376
-6.0193748 -7.9387498 24.969376
-6.0206251 -7.8343749 25.03125
-6.0306249 -7.7262502 25.123751
-6.0412502 -7.6237502 25.229376
-6.0406251 -7.52 25.353125
-5.9050002 -19.651875 29.045
-5.901875 -19.538124 28.828751
-5.9043751 -19.421249 28.645624
-5.9025002 -19.309999 28.494375
-5.9050002 -19.199375 28.356874
-5.9068751 -19.085625 28.200624
-5.9000001 -18.974375 28.094999
-5.895 -18.860624 27.97875
-5.890625 -18.75 27.874374
-5.890625 -18.639999 27.76375
-5.8899999 -18.530001 27.64625
-5.890625 -18.419374 27.539375
-5.8943748 -18.309999 27.44375
-5.9012499 -18.199375 27.317499
-5.9081249 -18.085625 27.165625
-5.9118748 -17.973749 26.995001
-5.9225001 -17.860624 26.827499
-5.9206252 -17.749374 26.663124
-5.9074998 -17.635626 26.501875
-5.9012499 -17.525 26.38125
-5.8931251 -17.415001 26.2675
-5.8893752 -17.304375 26.16
-5.8850002 -17.195 26.040625
-5.8812499 -17.084999 25.93375
-5.8768749 -16.975 25.810625
-5.8800001 -16.864374 25.685625
-5.879375 -16.754999 25.581249
-5.8800001 -16.645 25.46875
-5.881875 -16.535625 25.389376
-5.8762498 -16.429375 25.33
-5.8712502 -16.32 25.2575
-5.8731251 -16.21125 25.182501
-5.8731251 -16.10375 25.16
-5.8699999 -15.995 25.081249
-5.86625 -15.886875 25.012501
-5.8674998 -15.78 24.975
-5.8649998 -15.67375 24.94375
-5.8625002 -15.56625 24.924999
-5.8631248 -15.46 24.901875
-5.8600001 -15.350625 24.874374
-5.859375 -15.245 24.870625
-5.8600001 -15.14 24.8675
-5.8568749 -15.034375 24.851875
-5.8562498 -14.925625 24.835625
-5.8581252 -14.82 24.82
-5.859375 -14.715 24.82
-5.8600001 -14.609375 24.816875
-5.86375 -14.500625 24.804375
-5.8649998 -14.395 24.804375
-5.868125 -14.290625 24.83
-5.8656249 -14.18875 24.889999
-5.8649998 -14.080625 24.90625
-5.8649998 -13.975 24.9375
-5.8649998 -13.87 24.950001
-5.86375 -13.764375 24.956249
-5.8612499 -13.655625 24.96875
-5.8606248 -13.55 24.971874
-5.8612499 -13.44625 24.981251
-5.86375 -13.34375 25
-5.8643751 -13.235625 25.009375
-5.8643751 -13.13 25.040625
-5.8643751 -13.025 25.046875
-5.86375 -12.919375 25.049999
-5.8612499 -12.810625 25.0625
-5.8606248 -12.705 25.065624
-5.8606248 -12.6 25.065624
-5.8631248 -12.495 25.053125
-5.86375 -12.39 25.049999
-5.86375 -12.28375 25.043751
-5.8612499 -12.17625 25.03125
-5.8612499 -12.070625 25.025
-5.8612499 -11.965 25.025
-5.8612499 -11.859375 25.018749
-5.8643751 -11.750625 25.003124
-5.8643751 -11.645 25.003124
-5.8643751 -11.54 25.003124
-5.86375 -11.435 24.99375
-5.8606248 -11.33 24.978125
-5.8600001 -11.224375 24.96875
-5.8612499 -11.115625 24.93125
-5.8643751 -11.01 24.903126
-5.8656249 -10.905 24.889376
-5.8656249 -10.799375 24.855
-5.8649998 -10.69 24.841875
-5.8674998 -10.58125 24.823126
-5.8649998 -10.475 24.804375
-5.8649998 -10.37 24.798124
-5.8631248 -10.265 24.791876
-5.8575001 -10.16 24.77
-5.8600001 -10.054375 24.748125
-5.8612499 -9.9487495 24.741875
-5.8612499 -9.8406248 24.741875
-5.8606248 -9.7349997 24.73875
-5.8568749 -9.6300001 24.719999
-5.8562498 -9.524375 24.716875
-5.8575001 -9.4156246 24.719999
-5.8606248 -9.3100004 24.716875
-5.8649998 -9.2049999 24.698126
-5.8656249 -9.0993748 24.695
-5.8656249 -8.9906254 24.695
-5.8643751 -8.8850002 24.70125
-5.8600001 -8.7799997 24.717501
-5.8600001 -8.6750002 24.710625
-5.8649998 -8.5699997 24.704374
-5.8699999 -8.4650002 24.724375
-5.8693752 -8.359375 24.7675
-5.86625 -8.2543755 24.80625
-5.8656249 -8.1456251 24.853125
-5.8649998 -8.0406246 24.90625
-5.8618751 -7.9393749 24.97625
-5.8625002 -7.8343749 25.035625
-5.8737502 -7.7262502 25.135626
-5.88375 -7.6243749 25.236876
-5.88375 -7.52 25.358749
-5.7550001 -19.655001 29.08625
-5.7512498 -19.539375 28.844999
-5.7537498 -19.421875 28.65625
-5.7550001 -19.309999 28.518749
-5.7562499 -19.199375 28.389999
-5.7506251 -19.085625 28.234375
-5.7418752 -18.974375 28.105
-5.7368751 -18.860624 27.975624
-5.7325001 -18.75 27.864374
-5.734375 -18.639999 27.748125
-5.7350001 -18.529375 27.639999
-5.734375 -18.416876 27.516874
-5.7375002 -18.30875 27.408751
-5.7462502 -18.19875 27.280001
-5.7493749 -18.084999 27.13125
-5.7481251 -17.971251 26.97625
-5.75875 -17.860001 26.83375
-5.7593751 -17.749374 26.684999
-5.7474999 -17.635626 26.533125
-5.745625 -17.525 26.409374
-5.7424998 -17.414375 26.270624
-5.7393751 -17.301874 26.138124
-5.7337499 -17.194374 26.040625
-5.7287502 -17.084999 25.952499
-5.7218752 -16.975 25.833124
-5.7237501 -16.865 25.710625
-5.7237501 -16.754999 25.610001
-5.7237501 -16.645624 25.508751
-5.725625 -16.535625 25.4275
-5.7262502 -16.429375 25.364374
-5.7193751 -16.321251 25.301874
-5.7156248 -16.213751 25.23875
-5.7156248 -16.105 25.206875
-5.714375 -15.995625 25.122499
-5.71 -15.88875 25.043751
-5.7075 -15.780625 25.003124
-5.7056251 -15.675 24.965626
-5.7043748 -15.569375 24.953125
-5.7056251 -15.463125 24.940624
-5.7043748 -15.351875 24.908751
-5.7049999 -15.245625 24.905624
-5.7081251 -15.14 24.915001
-5.7075 -15.034375 24.89875
-5.7081251 -14.925625 24.83625
-5.7062502 -14.82 24.813749
-5.7049999 -14.715625 24.838751
-5.7056251 -14.609375 24.841875
-5.7087498 -14.50125 24.82625
-5.7093749 -14.395625 24.823126
-5.7093749 -14.29125 24.83625
-5.7068748 -14.18875 24.889999
-5.7062502 -14.080625 24.90625
-5.7062502 -13.975 24.94375
-5.7062502 -13.87 24.950001
-5.7062502 -13.764375 24.950001
-5.7056251 -13.655625 24.953125
-5.7056251 -13.550625 24.959375
-5.7056251 -13.44875 24.990625
-5.7062502 -13.344375 25
-5.7062502 -13.235625 25.00625
-5.7056251 -13.13 25.040625
-5.7056251 -13.025 25.046875
-5.7049999 -12.919375 25.049999
-5.7062502 -12.810625 25.053125
-5.7062502 -12.705 25.053125
-5.7062502 -12.6 25.053125
-5.7068748 -12.495 25.049999
-5.7068748 -12.39 25.049999
-5.7056251 -12.284375 25.046875
-5.7049999 -12.17875 25.043751
-5.7043748 -12.07375 25.046875
-5.7043748 -11.965625 25.046875
-5.7049999 -11.859375 25.043751
-5.7087498 -11.750625 25.025
-5.7093749 -11.645 25.021875
-5.7087498 -11.54 25.018749
-5.7056251 -11.435 25.003124
-5.7012501 -11.33 24.981251
-5.7018752 -11.224375 24.971874
-5.7049999 -11.115625 24.94375
-5.7062502 -11.01 24.905624
-5.7093749 -10.905 24.88125
-5.71 -10.799375 24.870625
-5.71 -10.690625 24.86375
-5.7131252 -10.58375 24.841875
-5.7106252 -10.47625 24.823126
-5.71 -10.370625 24.82
-5.7093749 -10.265 24.810625
-5.7062502 -10.16 24.791876
-5.71 -10.055 24.766874
-5.7131252 -9.9493752 24.751249
-5.7137499 -9.8406248 24.748125
-5.7131252 -9.7349997 24.745001
-5.7093749 -9.6300001 24.72625
-5.7087498 -9.524375 24.723125
-5.7087498 -9.4156246 24.723125
-5.71 -9.3100004 24.720625
-5.7137499 -9.2049999 24.70125
-5.714375 -9.0993748 24.698126
-5.714375 -8.9906254 24.705
-5.7106252 -8.8856249 24.724375
-5.7068748 -8.7806253 24.73875
-5.7062502 -8.6750002 24.715
-5.71 -8.5699997 24.721251
-5.714375 -8.4650002 24.751875
-5.7137499 -8.3599997 24.793751
-5.7106252 -8.2543755 24.828125
-5.71 -8.1456251 24.875
-5.7106252 -8.0406246 24.928749
-5.7087498 -7.9393749 24.997499
-5.7075 -7.8343749 25.051874
-5.7168751 -7.7262502 25.164375
-5.7293749 -7.6243749 25.259375
-5.7337499 -7.52 25.365625
-5.605 -19.655624 29.1325
-5.5999999 -19.540001 28.883751
-5.5999999 -19.424376 28.680626
-5.6018748 -19.310625 28.545
-5.5993748 -19.199375 28.421249
-5.5943751 -19.085625 28.26
-5.589375 -18.974375 28.105
-5.5875001 -18.860624 27.959375
-5.5812502 -18.75 27.830626
-5.5806251 -18.639999 27.72875
-5.5799999 -18.529375 27.643126
-5.578125 -18.415625 27.506874
-5.5799999 -18.305626 27.38125
-5.5856252 -18.195625 27.250626
-5.5887499 -18.08375 27.115
-5.5887499 -17.970625 26.966249
-5.5987501 -17.860001 26.84
-5.6018748 -17.749374 26.703751
-5.5918751 -17.635626 26.551874
-5.5900002 -17.525 26.40625
-5.586875 -17.414375 26.270624
-5.5837498 -17.301874 26.150625
-5.5768752 -17.194374 26.043751
-5.5743752 -17.084999 25.940001
-5.566875 -16.975 25.82375
-5.5650001 -16.865 25.716875
-5.5618749 -16.755625 25.631874
-5.5625 -16.648125 25.540625
-5.5656252 -16.536875 25.46875
-5.5675001 -16.430626 25.424376
-5.5612502 -16.32375 25.355
-5.5574999 -16.215 25.280001
-5.5599999 -16.105 25.216875
-5.5587502 -15.99625 25.157499
-5.5549998 -15.89 25.115625
-5.5543752 -15.78125 25.071875
-5.55125 -15.675 25.025
-5.5481248 -15.57 25
-5.5500002 -15.464375 24.978125
-5.5481248 -15.355 24.950001
-5.5481248 -15.24875 24.94375
-5.5506248 -15.14125 24.93125
-5.5487499 -15.035 24.905624
-5.5543752 -14.92625 24.855625
-5.55375 -14.82125 24.844999
-5.5506248 -14.718125 24.8675
-5.5500002 -14.610625 24.870625
-5.5506248 -14.504375 24.8675
-5.5506248 -14.399375 24.8675
-5.5518751 -14.294375 24.874374
-5.55375 -14.189375 24.899376
-5.5543752 -14.080625 24.909374
-5.5549998 -13.975 24.946875
-5.5549998 -13.87 24.953125
-5.5549998 -13.764375 24.953125
-5.5549998 -13.655625 24.953125
-5.5549998 -13.550625 24.959375
-5.555625 -13.449375 24.99375
-5.5549998 -13.344375 25.003124
-5.5543752 -13.235625 25.00625
-5.5518751 -13.13 25.025
-5.5506248 -13.025 25.03125
-5.5493751 -12.919375 25.046875
-5.5562501 -12.810625 25.049999
-5.558125 -12.705 25.049999
-5.5587502 -12.6 25.053125
-5.5593748 -12.495 25.049999
-5.558125 -12.389375 25.046875
-5.5524998 -12.28125 25.03125
-5.5506248 -12.17625 25.03125
-5.5475001 -12.07375 25.046875
-5.5462499 -11.965625 25.046875
-5.546875 -11.859375 25.043751
-5.5500002 -11.750625 25.028126
-5.55125 -11.645 25.021875
-5.55125 -11.54 25.021875
-5.5500002 -11.435 25.015625
-5.5475001 -11.33 24.996876
-5.5506248 -11.224375 24.975
-5.5543752 -11.115625 24.950001
-5.5531249 -11.01 24.924999
-5.555625 -10.905 24.905624
-5.5549998 -10.799375 24.8925
-5.5524998 -10.690625 24.870625
-5.5549998 -10.585 24.85125
-5.5549998 -10.479375 24.844999
-5.5549998 -10.37375 24.838751
-5.5549998 -10.265625 24.807501
-5.555625 -10.16 24.791876
-5.5587502 -10.055 24.776251
-5.5599999 -9.9493752 24.76375
-5.5599999 -9.8406248 24.76375
-5.5593748 -9.7349997 24.760626
-5.555625 -9.6300001 24.748125
-5.5549998 -9.524375 24.745001
-5.5549998 -9.4156246 24.745625
-5.555625 -9.3100004 24.745001
-5.5587502 -9.2049999 24.727501
-5.5599999 -9.0993748 24.727501
-5.5625 -8.9918747 24.748751
-5.5599999 -8.8887501 24.768126
-5.558125 -8.7837496 24.771875
-5.5549998 -8.6762505 24.749374
-5.5568752 -8.5699997 24.758751
-5.5587502 -8.4650002 24.78125
-5.5562501 -8.3599997 24.8125
-5.5549998 -8.2543755 24.85
-5.5562501 -8.1456251 24.9
-5.5587502 -8.0412502 24.9575
-5.5562501 -7.9393749 25.029375
-5.5562501 -7.8343749 25.08625
-5.5650001 -7.7262502 25.18375
-5.5768752 -7.6243749 25.286875
-5.5793748 -7.52 25.394375
-5.4537501 -19.65625 29.158751
-5.4456248 -19.540001 28.905624
-5.4412498 -19.424999 28.690624
-5.4400001 -19.310625 28.545
-5.4368749 -19.199375 28.418125
-5.4356251 -19.085625 28.26
-5.4324999 -18.975 28.114374
-5.4337502 -18.860624 27.971874
-5.4293752 -18.75 27.83
-5.42875 -18.639999 27.719376
-5.42875 -18.529375 27.615
-5.4274998 -18.415625 27.4725
-5.4256248 -18.305 27.348749
-5.42625 -18.194374 27.206875
-5.430625 -18.081249 27.070625
-5.4349999 -17.969999 26.928749
-5.4400001 -17.860001 26.826876
-5.4431248 -17.749374 26.700624
-5.4362502 -17.635626 26.54875
-5.4368749 -17.525 26.40625
-5.433125 -17.415625 26.280001
-5.4293752 -17.304375 26.178749
-5.4231248 -17.195 26.0625
-5.4225001 -17.084999 25.946251
-5.415 -16.975624 25.839375
-5.410625 -16.865 25.73875
-5.40625 -16.75625 25.66
-5.4093752 -16.649376 25.588125
-5.4099998 -16.540001 25.534374
-5.4074998 -16.43375 25.49
-5.4050002 -16.325001 25.405624
-5.4050002 -16.215626 25.33
-5.4081249 -16.106251 25.26125
-5.401875 -15.999375 25.206875
-5.3987498 -15.89375 25.17
-5.4031248 -15.784375 25.121876
-5.4031248 -15.675625 25.075001
-5.4012499 -15.57 25.046875
-5.4043751 -15.464375 25.018749
-5.4037499 -15.355625 24.984375
-5.4037499 -15.25 24.978125
-5.4025002 -15.144375 24.96875
-5.3981252 -15.03875 24.946875
-5.4031248 -14.93 24.905001
-5.4012499 -14.824375 24.887501
-5.3968749 -14.719375 24.89875
-5.3962498 -14.61125 24.9025
-5.3962498 -14.505 24.9025
-5.3968749 -14.4 24.905624
-5.399375 -14.295 24.918125
-5.4006252 -14.189375 24.924999
-5.4012499 -14.080625 24.93125
-5.4037499 -13.975625 24.96875
-5.4043751 -13.870625 24.975
-5.4043751 -13.764375 24.975
-5.4043751 -13.65625 24.975
-5.4050002 -13.55125 24.978125
-5.4074998 -13.449375 25.003124
-5.4050002 -13.344375 25.021875
-5.4043751 -13.235625 25.025
-5.4037499 -13.13 25.028126
-5.4031248 -13.025 25.03125
-5.4000001 -12.919375 25.046875
-5.4012499 -12.810625 25.049999
-5.401875 -12.705 25.053125
-5.4043751 -12.6 25.065624
-5.4081249 -12.495 25.053125
-5.4081249 -12.389375 25.046875
-5.4043751 -12.28125 25.03125
-5.4031248 -12.17625 25.03125
-5.399375 -12.07375 25.043751
-5.3956251 -11.965625 25.03125
-5.395 -11.859375 25.028126
-5.3962498 -11.750625 25.021875
-5.399375 -11.645 25.00625
-5.4000001 -11.54 25.003124
-5.399375 -11.435 25
-5.399375 -11.33 24.99375
-5.4031248 -11.224375 24.975
-5.4074998 -11.115625 24.953125
-5.4081249 -11.01 24.94375
-5.4081249 -10.905 24.934376
-5.4050002 -10.799375 24.89875
-5.4012499 -10.690625 24.873751
-5.4012499 -10.585 24.866875
-5.4000001 -10.48 24.86375
-5.4000001 -10.374375 24.8575
-5.4006252 -10.265625 24.816875
-5.4031248 -10.16 24.798124
-5.4050002 -10.055 24.782499
-5.4050002 -9.9493752 24.7575
-5.4056249 -9.8406248 24.754375
-5.4043751 -9.7349997 24.760626
-5.4012499 -9.6300001 24.77
-5.4006252 -9.524375 24.773125
-5.4000001 -9.4156246 24.770624
-5.4000001 -9.3100004 24.774376
-5.4000001 -9.2049999 24.774376
-5.4006252 -9.1000004 24.7775
-5.4050002 -8.9943752 24.793751
-5.4050002 -8.8900003 24.799999
-5.4043751 -8.7849998 24.796875
-5.401875 -8.67875 24.784374
-5.40625 -8.5706253 24.8125
-5.4037499 -8.4650002 24.84375
-5.399375 -8.3599997 24.865625
-5.4006252 -8.2543755 24.884375
-5.4050002 -8.1468754 24.931875
-5.4081249 -8.0437498 25.000626
-5.4056249 -7.9400001 25.076876
-5.4056249 -7.8343749 25.133125
-5.4112501 -7.7268748 25.21875
-5.4187498 -7.6243749 25.331249
-5.4175 -7.52 25.454374
-5.2981248 -19.659374 29.218124
-5.2906251 -19.54125 28.936874
-5.285625 -19.424999 28.706249
-5.2818751 -19.310625 28.55125
-5.28125 -19.199375 28.4275
-5.2837501 -19.086876 28.275625
-5.2800002 -18.977501 28.145624
-5.2787499 -18.861876 28
-5.2712498 -18.75 27.849375
-5.2712498 -18.639999 27.725624
-5.2706251 -18.529375 27.611876
-5.2712498 -18.415625 27.463125
-5.2712498 -18.305 27.33
-5.2706251 -18.194374 27.178125
-5.2750001 -18.080626 27.03875
-5.28125 -17.969999 26.896875
-5.28125 -17.860001 26.7925
-5.2824998 -17.749374 26.66625
-5.2756252 -17.635626 26.52375
-5.2756252 -17.525625 26.415625
-5.2725 -17.418125 26.296249
-5.274375 -17.305626 26.178749
-5.2725 -17.195 26.065624
-5.2687502 -17.085625 25.961876
-5.26125 -16.978125 25.864374
-5.2575002 -16.866249 25.7675
-5.2525001 -16.758751 25.69125
-5.2575002 -16.65 25.631874
-5.2575002 -16.540625 25.578751
-5.2550001 -16.434376 25.509375
-5.2506251 -16.325624 25.43375
-5.2512498 -16.21875 25.376875
-5.2562499 -16.109375 25.32375
-5.2506251 -16.000626 25.258125
-5.2487502 -15.894375 25.206875
-5.2493749 -15.785 25.154375
-5.25 -15.67625 25.106251
-5.2531252 -15.570625 25.078125
-5.256875 -15.464375 25.053125
-5.254375 -15.355625 25.028126
-5.2525001 -15.25 25.018749
-5.25 -15.145 25.00625
-5.2487502 -15.039375 24.996876
-5.2531252 -14.930625 24.975
-5.2525001 -14.825 24.965
-5.2487502 -14.72 24.953125
-5.2487502 -14.61375 24.946875
-5.2493749 -14.505625 24.94375
-5.2493749 -14.4 24.94375
-5.25 -14.295 24.946875
-5.2493749 -14.189375 24.950001
-5.2493749 -14.08125 24.956249
-5.25 -13.97875 24.99375
-5.25 -13.87375 25
-5.25 -13.765625 25
-5.25 -13.659375 25
-5.2506251 -13.554375 25.003124
-5.2531252 -13.45 25.021875
-5.2506251 -13.344375 25.040625
-5.25 -13.235625 25.043751
-5.25 -13.13 25.049999
-5.25 -13.025 25.049999
-5.2493749 -12.919375 25.053125
-5.2493749 -12.810625 25.053125
-5.2487502 -12.705 25.05625
-5.2468748 -12.6 25.071875
-5.25 -12.495 25.05625
-5.2506251 -12.39 25.053125
-5.25 -12.284375 25.049999
-5.25 -12.179375 25.049999
-5.2487502 -12.074375 25.049999
-5.2449999 -11.965625 25.03125
-5.2443752 -11.859375 25.028126
-5.245625 -11.750625 25.021875
-5.2487502 -11.645 25.00625
-5.2487502 -11.54 25
-5.2462502 -11.435 24.981251
-5.245625 -11.33 24.978125
-5.2468748 -11.224375 24.971874
-5.2506251 -11.115625 24.946875
-5.2537498 -11.01 24.93125
-5.2550001 -10.905 24.918125
-5.2537498 -10.799375 24.880625
-5.2531252 -10.690625 24.870001
-5.2525001 -10.585 24.86375
-5.2468748 -10.479375 24.848125
-5.245625 -10.37375 24.838751
-5.2462502 -10.265625 24.804375
-5.2474999 -10.16 24.791876
-5.25 -10.055 24.779375
-5.25 -9.9493752 24.77
-5.2531252 -9.8406248 24.78875
-5.2506251 -9.7349997 24.807501
-5.2493749 -9.6300001 24.813749
-5.2487502 -9.524375 24.810625
-5.2462502 -9.4156246 24.79875
-5.2449999 -9.3100004 24.8025
-5.2418752 -9.2049999 24.81875
-5.2424998 -9.1000004 24.821875
-5.2487502 -8.9949999 24.828125
-5.25 -8.8900003 24.828125
-5.2493749 -8.7849998 24.825001
-5.2468748 -8.6793747 24.8125
-5.2487502 -8.5706253 24.834375
-5.243125 -8.4650002 24.86875
-5.2393751 -8.3599997 24.896875
-5.2449999 -8.2550001 24.924999
-5.2531252 -8.149375 24.973125
-5.2550001 -8.0450001 25.035625
-5.254375 -7.9400001 25.120625
-5.2556248 -7.835 25.18375
-5.2593751 -7.7293749 25.274376
-5.2637501 -7.625 25.366249
-5.2600002 -7.52 25.485624
-5.1418748 -19.661249 29.275625
-5.1356249 -19.543751 28.9625
-5.1343751 -19.425625 28.71875
-5.1306248 -19.311251 28.557501
-5.1306248 -19.200001 28.436874
-5.1331248 -19.089375 28.303749
-5.1281252 -18.979376 28.1775
-5.1243749 -18.864374 28.026251
-5.1156249 -18.751249 27.876875
-5.118125 -18.639999 27.745001
-5.11625 -18.529375 27.624374
-5.1193752 -18.415625 27.469376
-5.120625 -18.305 27.326876
-5.11625 -18.194374 27.159374
-5.11625 -18.080626 27.0075
-5.120625 -17.969999 26.878124
-5.120625 -17.860001 26.786249
-5.1193752 -17.749374 26.675625
-5.11375 -17.635626 26.536249
-5.118125 -17.526251 26.428749
-5.1168752 -17.418751 26.320625
-5.118125 -17.305626 26.198126
-5.1156249 -17.195 26.078751
-5.1112499 -17.08625 25.977501
-5.105 -16.97875 25.889999
-5.1012502 -16.866249 25.807501
-5.0962501 -16.759375 25.7325
-5.0987501 -16.650625 25.66625
-5.0987501 -16.540625 25.60375
-5.1012502 -16.434376 25.515625
-5.0962501 -16.325624 25.456249
-5.0962501 -16.219376 25.411249
-5.0993748 -16.110001 25.370625
-5.0956249 -16.001249 25.305
-5.0943751 -15.894375 25.251875
-5.0918751 -15.785625 25.200624
-5.0918751 -15.679375 25.150625
-5.0943751 -15.57375 25.121876
-5.098125 -15.465625 25.096874
-5.0956249 -15.355625 25.071875
-5.0918751 -15.25 25.053125
-5.0912499 -15.145 25.043751
-5.0918751 -15.039375 25.040625
-5.0949998 -14.93125 25.025
-5.0943751 -14.825 25.015625
-5.0918751 -14.72 24.996876
-5.0943751 -14.614375 24.978125
-5.098125 -14.505625 24.959375
-5.0993748 -14.4 24.953125
-5.0987501 -14.295 24.956249
-5.0949998 -14.189375 24.975
-5.0943751 -14.081875 24.984375
-5.0943751 -13.979375 25.015625
-5.0949998 -13.874375 25.025
-5.0949998 -13.76625 25.025
-5.0949998 -13.66 25.025
-5.0949998 -13.555 25.025
-5.0956249 -13.45 25.028126
-5.0949998 -13.344375 25.03125
-5.0949998 -13.235625 25.0375
-5.0949998 -13.13 25.06875
-5.0949998 -13.025 25.075001
-5.0949998 -12.919375 25.075001
-5.0943751 -12.810625 25.071875
-5.09375 -12.705 25.075001
-5.0912499 -12.6 25.0875
-5.09375 -12.495 25.075001
-5.0943751 -12.39 25.071875
-5.0943751 -12.285 25.071875
