ply
format ascii 1.0
comment PCL generated
element vertex 1514
property float x
property float y
property float z
element camera 0
property float view_px
property float view_py
property float view_pz
property float x_axisx
property float x_axisy
property float x_axisz
property float y_axisx
property float y_axisy
property float y_axisz
property float z_axisx
property float z_axisy
property float z_axisz
property float focal
property float scalex
property float scaley
property float centerx
property float centery
property int viewportx
property int viewporty
property float k1
property float k2
end_header
9.0799999 -5.9000001 0.056875002
9.078125 -5.8000002 0.011875
9.0749998 -5.6999998 -0.048124999
9.0749998 -5.5999999 -0.09375
9.0731249 -5.5 -0.135625
9.0762501 -5.4000001 -0.168125
9.0775003 -5.3000002 -0.2025
9.0799999 -5.1999998 -0.23125
9.078125 -5.0999999 -0.25937501
9.0843754 -4.9993749 -0.30312499
9.0900002 -4.899375 -0.32875001
9.0943747 -4.7987499 -0.354375
9.0981255 -4.69625 -0.37312499
9.1000004 -4.5956249 -0.394375
9.0993748 -4.4962502 -0.40000001
9.3043747 -7.9250002 1.823125
9.2981253 -7.82125 1.610625
9.2875004 -7.7199998 1.463125
9.2737503 -7.6199999 1.36
9.256875 -7.5187502 1.283125
9.2399998 -7.4162502 1.18625
9.2356253 -7.3150001 1.095625
9.2387505 -7.2150002 1.02
9.2368746 -7.11375 0.96687502
9.2368746 -7.0106249 0.91812497
9.2356253 -6.9099998 0.84062499
9.2349997 -6.8087502 0.74312502
9.2337503 -6.7062502 0.65625
9.234375 -6.605 0.58625001
9.2387505 -6.5050001 0.518125
9.2393751 -6.4050002 0.4325
9.2349997 -6.3049998 0.36750001
9.2349997 -6.2043748 0.328125
9.2381248 -6.1037502 0.27125001
9.2381248 -6.0012498 0.21375
9.234375 -5.9006252 0.153125
9.2306252 -5.8000002 0.1025
9.2275 -5.6999998 0.046875
9.2287502 -5.5999999 0.0093750004
9.2287502 -5.5 -0.033124998
9.2306252 -5.4000001 -0.069375001
9.2331247 -5.3000002 -0.098750003
9.2356253 -5.1999998 -0.123125
9.2287502 -5.0999999 -0.16500001
9.234375 -5 -0.205625
9.2399998 -4.9000001 -0.23125
9.2437496 -4.8000002 -0.2475
9.2456245 -4.6993752 -0.25562501
9.4637499 -7.8249998 1.8206249
9.4575005 -7.7212501 1.635625
9.4456253 -7.620625 1.4712501
9.4324999 -7.52 1.365625
9.415 -7.4187498 1.285625
9.4006252 -7.3162498 1.21
9.3900003 -7.2150002 1.1325001
9.3774996 -7.1143751 1.059375
9.3781252 -7.0106249 0.98812503
9.3831253 -6.9099998 0.90562499
9.38375 -6.8099999 0.83125001
9.3812504 -6.7087498 0.76125002
9.38375 -6.6062498 0.69312501
9.3881254 -6.5056248 0.62562501
9.3862495 -6.4050002 0.54250002
9.3824997 -6.3049998 0.47749999
9.3850002 -6.2049999 0.44374999
9.3893747 -6.105 0.38187501
9.3900003 -6.004375 0.31562501
9.3874998 -5.9037499 0.249375
9.3856249 -5.80125 0.20125
9.38375 -5.6999998 0.15062501
9.381875 -5.5999999 0.108125
9.381875 -5.5 0.066249996
9.3843746 -5.4000001 0.03875
9.38375 -5.3000002 0.018124999
9.3862495 -5.1999998 -0.00875
9.381875 -5.0999999 -0.063749999
9.3856249 -5 -0.093125001
9.6125002 -7.6237502 1.656875
9.6031246 -7.5212498 1.5075001
9.5881252 -7.4200001 1.3931251
9.5699997 -7.3187499 1.32125
9.5543747 -7.2162499 1.2525001
9.5387497 -7.1149998 1.161875
9.5337496 -7.01125 1.07125
9.5325003 -6.9099998 0.989375
9.5299997 -6.8099999 0.92937499
9.5249996 -6.71 0.86062503
9.5268745 -6.609375 0.78874999
9.5337496 -6.50875 0.73812503
9.5362501 -6.40625 0.67062497
9.5343752 -6.305625 0.614375
9.5362501 -6.2049999 0.578125
9.5406246 -6.105 0.51499999
9.5443754 -6.0050001 0.44624999
9.5462503 -5.9050002 0.38437501
9.5437498 -5.80375 0.33375001
9.5406246 -5.7012501 0.27625
9.54 -5.600625 0.22562499
9.5406246 -5.5 0.183125
9.5443754 -5.4000001 0.159375
9.5437498 -5.3000002 0.14812499
9.7537498 -7.4212499 1.5775
9.7418747 -7.3206248 1.475
9.7349997 -7.2193751 1.385
9.7200003 -7.1187501 1.30375
9.7075005 -7.0143752 1.219375
9.6949997 -6.9112501 1.15
9.6824999 -6.8106251 1.086875
9.6712503 -6.71 0.99624997
9.6712503 -6.6100001 0.90687501
9.6762505 -6.5100002 0.86312503
9.6768751 -6.4093752 0.80062503
9.6800003 -6.3087502 0.75625002
9.6875 -6.2062502 0.71375
9.6931248 -6.1056252 0.65062499
9.6949997 -6.0050001 0.58625001
9.6949997 -5.9050002 0.53375
9.6949997 -5.8049998 0.48500001
9.6956253 -5.7043748 0.4375
-27.128124 -4.5749998 -5.2175002
-27.109375 -4.4749999 -5.3581252
-27.104376 -4.3756251 -5.433125
-27.1075 -4.2793751 -5.5349998
-27.104376 -4.1799998 -5.63375
-27.094999 -4.0793748 -5.7075
-27.0875 -3.9768751 -5.7762499
-27.086876 -3.879375 -5.8468752
-26.991249 -4.6750002 -5.1675
-26.9825 -4.5749998 -5.3137498
-26.966249 -4.4749999 -5.4293752
-26.960625 -4.3756251 -5.495625
-26.959375 -4.2793751 -5.5949998
-26.953751 -4.1799998 -5.6893749
-26.945 -4.0787501 -5.7606249
-26.939375 -3.9762499 -5.8412499
-26.938749 -3.879375 -5.9043751
-26.933125 -3.78 -5.9450002
-26.93 -3.680625 -6.0174999
-26.928125 -3.5843749 -6.0675001
-26.925625 -3.4849999 -6.1037502
-26.924999 -3.3856249 -6.1306248
-26.92 -3.2893751 -6.1618748
-26.911875 -3.1900001 -6.1937499
-26.91 -3.0899999 -6.2137499
-26.905624 -2.99 -6.2318749
-26.905624 -2.890625 -6.243125
-26.905624 -2.7943749 -6.2512498
-26.904375 -2.6949999 -6.2943749
-26.852501 -4.774375 -5.0793748
-26.841249 -4.6750002 -5.2637501
-26.831249 -4.5749998 -5.390625
-26.821251 -4.4749999 -5.4743748
-26.817499 -4.3756251 -5.5462499
-26.809376 -4.2793751 -5.6475
-26.799376 -4.17875 -5.7468748
-26.790001 -4.0762501 -5.8206248
-26.784374 -3.975625 -5.9012499
-26.782499 -3.879375 -5.9650002
-26.776875 -3.78 -5.9987502
-26.776251 -3.680625 -6.0618749
-26.772499 -3.5843749 -6.1112499
-26.77 -3.4849999 -6.1306248
-26.77125 -3.3856249 -6.1437502
-26.77 -3.2893751 -6.1849999
-26.764999 -3.1900001 -6.2137499
-26.763124 -3.0899999 -6.2224998
-26.7575 -2.99 -6.2406249
-26.759375 -2.890625 -6.25875
-26.759375 -2.7943749 -6.2668748
-26.755625 -2.6949999 -6.2975001
-26.754999 -2.595 -6.3024998
-26.754999 -2.495625 -6.3024998
-26.754375 -2.399375 -6.3087502
-26.754375 -2.3 -6.3262501
-26.756874 -2.2006249 -6.3425002
-26.7575 -2.1043749 -6.3449998
-26.756874 -2.0050001 -6.3425002
-26.70875 -4.774375 -5.2012501
-26.692499 -4.6750002 -5.3581252
-26.68375 -4.5749998 -5.4581251
-26.674999 -4.4749999 -5.535625
-26.6675 -4.3756251 -5.6212502
-26.653749 -4.2787499 -5.7081251
-26.640625 -4.17625 -5.7937498
-26.630625 -4.0749998 -5.8625002
-26.622499 -3.975625 -5.9312501
-26.619375 -3.879375 -5.993125
-26.615 -3.78 -6.0256252
-26.616249 -3.680625 -6.0749998
-26.616875 -3.5843749 -6.1118751
-26.6175 -3.4849999 -6.1512499
-26.620625 -3.3856249 -6.171875
-26.622499 -3.2893751 -6.1956248
-26.6175 -3.1900001 -6.2137499
-26.615625 -3.0899999 -6.2193751
-26.61125 -2.99 -6.2381248
-26.61375 -2.890625 -6.25875
-26.613125 -2.7943749 -6.2643752
-26.6075 -2.6949999 -6.2793751
-26.606251 -2.595 -6.2818751
-26.606251 -2.495625 -6.2818751
-26.606251 -2.399375 -6.2818751
-26.606251 -2.3 -6.2849998
-26.606874 -2.2006249 -6.2874999
-26.606874 -2.1043749 -6.2874999
-26.573126 -4.870625 -5.1462498
-26.55875 -4.774375 -5.288125
-26.545626 -4.6743751 -5.3956251
-26.535625 -4.5749998 -5.4775
-26.52375 -4.4749999 -5.5799999
-26.51125 -4.3756251 -5.67875
-26.494375 -4.2781248 -5.7550001
-26.483126 -4.1756248 -5.8293748
-26.475624 -4.0749998 -5.8943748
-26.466875 -3.975625 -5.9575
-26.459375 -3.879375 -6.0118752
-26.454374 -3.78 -6.038125
-26.455626 -3.680625 -6.0725002
-26.4575 -3.5843749 -6.1025
-26.467501 -3.4849999 -6.1662502
-26.475 -3.3856249 -6.1875
-26.475 -3.2893751 -6.1950002
-26.473125 -3.1900001 -6.2012501
-26.471874 -3.0899999 -6.2043748
-26.466249 -2.99 -6.2218752
-26.465626 -2.890625 -6.2381248
-26.465626 -2.7943749 -6.2406249
-26.463751 -2.6949999 -6.2399998
-26.463751 -2.595 -6.2399998
-26.463751 -2.495625 -6.2399998
-26.465 -2.399375 -6.2375002
-26.465 -2.3 -6.2375002
-26.465 -2.2006249 -6.2375002
-26.42 -4.870625 -5.2406249
-26.405624 -4.7737498 -5.3581252
-26.398125 -4.671875 -5.4299998
-26.388124 -4.5743752 -5.5018749
-26.373751 -4.4749999 -5.6156249
-26.363125 -4.375 -5.7137499
-26.35 -4.2756252 -5.7993751
-26.34 -4.1750002 -5.890625
-26.3325 -4.0749998 -5.9468751
-26.325624 -3.975625 -5.9881248
-26.31875 -3.879375 -6.02
-26.311251 -3.78 -6.0462499
-26.30625 -3.680625 -6.098125
-26.30125 -3.5843749 -6.1331248
-26.31625 -3.4849999 -6.1793752
-26.330626 -3.3856249 -6.1768751
-26.327499 -3.2893751 -6.1931248
-26.3225 -3.1900001 -6.2106252
-26.321875 -3.0899999 -6.2137499
-26.320625 -2.99 -6.2168751
-26.320625 -2.890625 -6.2193751
-26.32 -2.7943749 -6.2162499
-26.318125 -2.6949999 -6.19875
-26.318125 -2.595 -6.1925001
-26.319374 -2.495625 -6.1900001
-26.324375 -2.399375 -6.1799998
-26.325624 -2.3 -6.1750002
-26.279375 -4.9699998 -5.1768751
-26.269375 -4.870625 -5.2887502
-26.261875 -4.7731252 -5.3856249
-26.250626 -4.6712499 -5.4693751
-26.240625 -4.5743752 -5.5431252
-26.227501 -4.4749999 -5.6537499
-26.216875 -4.3743749 -5.7493749
-26.206875 -4.2750001 -5.8206248
-26.200001 -4.1750002 -5.8987498
-26.195625 -4.0749998 -5.94625
-26.1875 -3.975625 -5.975625
-26.1775 -3.879375 -6.0193748
-26.171875 -3.78 -6.0518751
-26.166876 -3.680625 -6.109375
-26.16 -3.5843749 -6.1487498
-26.171875 -3.4849999 -6.1668749
-26.186874 -3.3856249 -6.1525002
-26.186874 -3.2893751 -6.1743751
-26.18125 -3.1900001 -6.1931248
-26.18 -3.0899999 -6.1956248
-26.18 -2.99 -6.1956248
-26.179375 -2.890625 -6.1931248
-26.18 -2.7943749 -6.1881251
-26.183125 -2.6949999 -6.1587501
-26.188126 -2.595 -6.1356249
-26.189375 -2.495625 -6.1300001
-26.190624 -2.399375 -6.125
-26.151251 -5.0700002 -5.0493751
-26.128124 -4.9699998 -5.23
-26.116249 -4.8699999 -5.3200002
-26.112499 -4.7706251 -5.421875
-26.100624 -4.6706252 -5.5237498
-26.091875 -4.5743752 -5.6062498
-26.078125 -4.4743748 -5.7150002
-26.07375 -4.3724999 -5.7831249
-26.06625 -4.274375 -5.8206248
-26.055 -4.1750002 -5.868125
-26.045 -4.0749998 -5.9124999
-26.033751 -3.975625 -5.9524999
-26.020624 -3.879375 -6.026875
-26.018126 -3.78 -6.0793748
-26.022499 -3.680625 -6.1218748
-26.026251 -3.5843749 -6.1456251
-26.035 -3.4849999 -6.1568751
-26.041876 -3.3856249 -6.1637502
-26.0425 -3.2893751 -6.1750002
-26.040625 -3.1900001 -6.1799998
-26.040001 -3.0899999 -6.1743751
-26.040001 -2.99 -6.1693749
-26.0375 -2.890625 -6.1537499
-26.0375 -2.7943749 -6.1481252
-26.043751 -2.6949999 -6.1218748
-26.053749 -2.595 -6.0881252
-26.058125 -2.495625 -6.0725002
-26.05875 -2.399375 -6.0643749
-25.997499 -5.0700002 -5.13375
-25.97875 -4.9699998 -5.26125
-25.963751 -4.8699999 -5.3431249
-25.958124 -4.77 -5.4506249
-25.9475 -4.6706252 -5.555625
-25.940001 -4.5743752 -5.6387501
-25.928749 -4.4749999 -5.723125
-25.926874 -4.3743749 -5.7606249
-25.91625 -4.2750001 -5.7993751
-25.9025 -4.1750002 -5.8525
-25.891251 -4.0749998 -5.9099998
-25.881874 -3.975625 -5.9637499
-25.876875 -3.879375 -6.0218749
-25.878124 -3.78 -6.0762501
-25.88875 -3.680625 -6.1031251
-25.89875 -3.5843749 -6.1143751
-25.904375 -3.4849999 -6.129375
-25.908125 -3.3856249 -6.1537499
-25.908125 -3.2893751 -6.1712499
-25.904375 -3.1900001 -6.17625
-25.900625 -3.0899999 -6.1481252
-25.9025 -2.99 -6.1268749
-25.903749 -2.890625 -6.0962501
-25.905001 -2.7943749 -6.0875001
-25.911875 -2.6949999 -6.066875
-25.918751 -2.595 -6.04
-25.920626 -2.495625 -6.0324998
-25.8375 -5.0700002 -5.2006249
-25.825001 -4.9699998 -5.2981248
-25.813749 -4.8699999 -5.381875
-25.805626 -4.77 -5.4987502
-25.799999 -4.6706252 -5.585
-25.795 -4.5743752 -5.6418748
-25.784374 -4.4749999 -5.7037501
-25.778126 -4.375 -5.7362499
-25.763124 -4.2750001 -5.7837501
-25.74625 -4.1750002 -5.8537502
-25.741249 -4.0749998 -5.9118748
-25.739374 -3.975625 -5.9537501
-25.74375 -3.879375 -6.0006251
-25.747499 -3.78 -6.055625
-25.7575 -3.680625 -6.0812502
-25.7675 -3.5843749 -6.0943751
-25.770624 -3.4849999 -6.1112499
-25.770624 -3.3856249 -6.1387501
-25.769375 -3.2893751 -6.1424999
-25.764376 -3.1900001 -6.131875
-25.758125 -3.0899999 -6.1012502
-25.758751 -2.99 -6.0900002
-25.76375 -2.890625 -6.0662498
-25.766251 -2.7943749 -6.055625
-25.77125 -2.6949999 -6.0287499
-25.778749 -2.595 -5.9881248
-25.713751 -5.1700001 -5.13625
-25.694374 -5.0700002 -5.2606249
-25.67625 -4.9699998 -5.359375
-25.661875 -4.8699999 -5.4256248
-25.653749 -4.77 -5.5193748
-25.653749 -4.6706252 -5.5756249
-25.649376 -4.5743752 -5.6224999
-25.635 -4.4749999 -5.6856251
-25.625 -4.375 -5.73
-25.612499 -4.2750001 -5.7775002
-25.603125 -4.1750002 -5.84375
-25.606251 -4.0749998 -5.913125
-25.610001 -3.975625 -5.9506249
-25.616875 -3.879375 -5.9924998
-25.624374 -3.78 -6.0343752
-25.631874 -3.680625 -6.0431252
-25.635626 -3.5843749 -6.0481248
-25.638124 -3.4849999 -6.0787501
-25.633751 -3.3856249 -6.1031251
-25.629375 -3.2893751 -6.0925002
-25.625626 -3.1900001 -6.0974998
-25.623751 -3.0899999 -6.0943751
-25.623751 -2.99 -6.0887499
-25.626249 -2.890625 -6.0524998
-25.628124 -2.7943749 -6.0187502
-25.630625 -2.6949999 -5.98
-25.638124 -2.595 -5.9512501
-25.616249 -5.7737498 -3.93875
-25.563126 -5.2693748 -5.0393748
-25.553125 -5.1700001 -5.1693749
-25.546249 -5.0700002 -5.2862501
-25.53125 -4.9699998 -5.3856249
-25.516874 -4.8699999 -5.4437499
-25.509375 -4.77 -5.5174999
-25.50375 -4.6706252 -5.5599999
-25.4925 -4.5743752 -5.6075001
-25.47875 -4.4749999 -5.6799998
-25.47625 -4.375 -5.73
-25.471251 -4.2750001 -5.7750001
-25.471251 -4.1750002 -5.8249998
-25.47875 -4.0749998 -5.8856249
-25.485001 -3.975625 -5.9299998
-25.493126 -3.879375 -5.9743748
-25.498751 -3.78 -6.0137501
-25.500626 -3.680625 -6.0162501
-25.501249 -3.5843749 -6.0093751
-25.501875 -3.4849999 -6.0431252
-25.491875 -3.3856249 -6.0706248
-25.486876 -3.2893751 -6.05125
-25.485624 -3.1900001 -6.0425
-25.485001 -3.0899999 -6.0368748
-25.485624 -2.99 -6.03125
-25.487499 -2.890625 -5.995625
-25.48625 -2.7943749 -5.9693751
-25.488125 -2.6949999 -5.933125
-25.485001 -5.870625 -3.8881249
-25.473125 -5.7731252 -4.0675001
-25.4475 -5.4662499 -4.73
-25.432501 -5.3656249 -4.9506249
-25.409374 -5.2693748 -5.1174998
-25.398125 -5.1700001 -5.2337499
-25.395 -5.0700002 -5.3106251
-25.387501 -4.9699998 -5.3756251
-25.374374 -4.8699999 -5.42625
-25.365 -4.77 -5.4968748
-25.356251 -4.6706252 -5.5549998
-25.344376 -4.5743752 -5.6075001
-25.334999 -4.4749999 -5.6799998
-25.338751 -4.375 -5.73
-25.3375 -4.2756252 -5.7725
-25.341875 -4.1750002 -5.816875
-25.349375 -4.0749998 -5.8674998
-25.355625 -3.975625 -5.9087501
-25.36375 -3.879375 -5.9512501
-25.368126 -3.78 -5.9924998
-25.36875 -3.680625 -6.0037498
-25.368126 -3.5843749 -6.0037498
-25.36375 -3.4849999 -6.0218749
-25.351875 -3.3856249 -6.0431252
-25.35 -3.2893751 -6.0318751
-25.348749 -3.1900001 -6.0006251
-25.344999 -3.0899999 -5.964375
-25.344999 -2.99 -5.9512501
-25.345625 -2.890625 -5.9256248
-25.346251 -2.7943749 -5.915
-25.350624 -2.6949999 -5.8856249
-25.346874 -5.9706249 -3.8362501
-25.33625 -5.8699999 -4.0193748
-25.325624 -5.7706251 -4.19625
-25.300625 -5.4656248 -4.8325
-25.28125 -5.3656249 -5.0124998
-25.265625 -5.2693748 -5.1531248
-25.255625 -5.1700001 -5.2674999
-25.247499 -5.0700002 -5.3225002
-25.23875 -4.9699998 -5.3756251
-25.226875 -4.8699999 -5.42875
-25.219376 -4.77 -5.504375
-25.213125 -4.6706252 -5.5675001
-25.203125 -4.5743752 -5.6174998
-25.20125 -4.4749999 -5.6799998
-25.20875 -4.3756251 -5.7275
-25.21125 -4.2781248 -5.7593751
-25.217501 -4.1756248 -5.8018751
-25.220625 -4.0749998 -5.8587499
-25.225 -3.975625 -5.8912501
-25.23 -3.879375 -5.9324999
-25.230625 -3.78 -5.9868751
-25.229376 -3.680625 -6.0262499
-25.22875 -3.5843749 -6.0293751
-25.223749 -3.4849999 -6.0218749
-25.211876 -3.3856249 -6.0293751
-25.2125 -3.2893751 -6.0131249
-25.20875 -3.1900001 -5.9818749
-25.203125 -3.0899999 -5.9381251
-25.205 -2.99 -5.9175
-25.205626 -2.890625 -5.9043751
-25.205626 -2.7943749 -5.8956251
-25.214375 -6.07125 -3.7493751
-25.203751 -5.9699998 -3.9475
-25.193125 -5.8693752 -4.1174998
-25.183125 -5.77 -4.3000002
-25.173124 -5.6693749 -4.4937501
-25.16375 -5.5662498 -4.6999998
-25.14625 -5.4650002 -4.899375
-25.129375 -5.3656249 -5.04
-25.123751 -5.2693748 -5.1468749
-25.118126 -5.1700001 -5.2362499
-25.1075 -5.0700002 -5.2849998
-25.093124 -4.9699998 -5.3699999
-25.081875 -4.8699999 -5.4381251
-25.07375 -4.77 -5.5018749
-25.070625 -4.6706252 -5.5518751
-25.067499 -4.5743752 -5.605
-25.070625 -4.4749999 -5.6675
-25.08 -4.3756251 -5.7249999
-25.084375 -4.2787499 -5.756875
-25.089375 -4.1756248 -5.7962499
-25.091249 -4.0749998 -5.8587499
-25.095625 -3.975625 -5.8856249
-25.0975 -3.879375 -5.9143748
-25.09375 -3.78 -5.9568748
-25.088125 -3.680625 -6.0025001
-25.08625 -3.5843749 -6.0106249
-25.080626 -3.4849999 -5.9987502
-25.066875 -3.3856249 -5.9924998
-25.068125 -3.2893751 -5.9568748
-25.065624 -3.1900001 -5.9349999
-25.064375 -3.0899999 -5.921875
-25.06875 -2.99 -5.8981252
-25.07 -2.890625 -5.870625
-25.07 -2.7943749 -5.8531251
-25.071875 -6.1712499 -3.6656251
-25.06625 -6.0700002 -3.8499999
-25.054375 -5.96875 -4.0431252
-25.040001 -5.8668752 -4.2156248
-25.030001 -5.7693748 -4.4050002
-25.019375 -5.6687498 -4.6143751
-25.004375 -5.5656252 -4.8074999
-24.993126 -5.4650002 -4.9450002
-24.985624 -5.3656249 -5.0393748
-24.980625 -5.2693748 -5.11625
-24.973749 -5.1700001 -5.2024999
-24.965 -5.0700002 -5.2737498
-24.955 -4.9699998 -5.3668752
-24.948126 -4.8699999 -5.4231248
-24.940001 -4.77 -5.4737501
-24.936874 -4.6706252 -5.5212498
-24.938749 -4.5743752 -5.5968752
-24.941875 -4.4749999 -5.6618748
-24.95125 -4.3756251 -5.7193751
-24.955626 -4.2787499 -5.7512498
-24.959999 -4.1756248 -5.7862501
-24.963751 -4.0749998 -5.8531251
-24.966249 -3.975625 -5.8800001
-24.960625 -3.879375 -5.90625
-24.956249 -3.78 -5.9243751
-24.953751 -3.680625 -5.9381251
-24.946251 -3.5843749 -5.9543748
-24.93125 -3.4849999 -5.9662499
-24.915625 -3.3856249 -5.9637499
-24.92 -3.2893751 -5.9168749
-24.921249 -3.1900001 -5.8912501
-24.922501 -3.0899999 -5.879375
-24.928749 -2.99 -5.8493748
-24.933125 -2.890625 -5.819375
-24.93375 -2.7950001 -5.7993751
-24.93 -6.2731252 -3.5943749
-24.918751 -6.1706252 -3.7787499
-24.91 -6.069375 -3.9593749
-24.89875 -5.9662499 -4.15625
-24.883751 -5.8656249 -4.3337498
-24.876249 -5.7687502 -4.5025001
-24.86875 -5.6662502 -4.6881251
-24.858749 -5.5650001 -4.8625002
-24.853125 -5.4650002 -4.9587498
-24.846251 -5.3656249 -5.0293751
-24.8375 -5.2693748 -5.1037502
-24.826876 -5.1700001 -5.1999998
-24.82 -5.0700002 -5.2887502
-24.81625 -4.9699998 -5.3674998
-24.811251 -4.8699999 -5.4206252
-24.80625 -4.77 -5.4806252
-24.805626 -4.6706252 -5.5212498
-24.808125 -4.5743752 -5.5906248
-24.809376 -4.4749999 -5.6437502
-24.81625 -4.3756251 -5.6906252
-24.8225 -4.2787499 -5.7306252
-24.827499 -4.17625 -5.7718749
-24.828125 -4.0756249 -5.8243752
-24.826876 -3.975625 -5.8456249
-24.821875 -3.879375 -5.8768749
-24.81875 -3.78 -5.8881249
-24.815001 -3.680625 -5.8912501
-24.799999 -3.5843749 -5.9031248
-24.784374 -3.4849999 -5.9143748
-24.77375 -3.3856249 -5.9162502
-24.779375 -3.2893751 -5.8831248
-24.783751 -3.1900001 -5.8581252
-24.783751 -3.0899999 -5.8381252
-24.786875 -2.9906249 -5.8112502
-24.789375 -2.8912499 -5.7806249
-24.786875 -6.3699999 -3.51
-24.774376 -6.2706251 -3.6893749
-24.762501 -6.1700001 -3.881875
-24.753124 -6.069375 -4.0637498
-24.745625 -5.9656248 -4.256875
-24.735624 -5.8656249 -4.4299998
-24.72875 -5.7687502 -4.5881252
-24.721874 -5.6656251 -4.73
-24.719999 -5.5650001 -4.8693752
-24.710625 -5.4650002 -4.9656248
-24.695625 -5.3656249 -5.0431252
-24.686251 -5.2693748 -5.1312499
-24.680626 -5.1700001 -5.2237501
-24.678125 -5.0700002 -5.3018751
-24.681875 -4.9699998 -5.3575001
-24.679375 -4.8699999 -5.4074998
-24.675625 -4.77 -5.4806252
-24.673124 -4.6706252 -5.5281248
-24.671249 -4.5743752 -5.5806251
-24.671875 -4.4749999 -5.6374998
-24.678749 -4.3756251 -5.6793752
-24.682501 -4.2793751 -5.7087498
-24.68375 -4.1793752 -5.7362499
-24.68 -4.0787501 -5.7668748
-24.679375 -3.9762499 -5.80125
-24.681875 -3.879375 -5.8431249
-24.675625 -3.78 -5.8612499
-24.66375 -3.680625 -5.86375
-24.647499 -3.5843749 -5.8487501
-24.638124 -3.4849999 -5.8531251
-24.635626 -3.3856249 -5.8456249
-24.639999 -3.2893751 -5.8243752
-24.643126 -3.1900001 -5.7987499
-24.6425 -3.090625 -5.7775002
-24.646875 -2.9937501 -5.7562499
-24.645 -2.8943751 -5.7306252
-24.65625 -6.4699998 -3.4349999
-24.633125 -6.3693752 -3.609375
-24.621876 -6.27 -3.7662499
-24.615 -6.1700001 -3.9475
-24.608749 -6.0687499 -4.1174998
-24.600624 -5.9656248 -4.285625
-24.590626 -5.8656249 -4.4343748
-24.581249 -5.7687502 -4.5987501
-24.57375 -5.6656251 -4.7356248
-24.57375 -5.5650001 -4.86375
-24.570625 -5.4650002 -4.94625
-24.558125 -5.3656249 -5.0374999
-24.543125 -5.2693748 -5.1525002
-24.53875 -5.1700001 -5.2512498
-24.53875 -5.0700002 -5.3099999
-24.543125 -4.9699998 -5.3543749
-24.543125 -4.8699999 -5.399375
-24.54125 -4.77 -5.4675002
-24.5375 -4.6706252 -5.5250001
-24.535625 -4.5743752 -5.5774999
-24.5375 -4.4749999 -5.6287498
-24.544374 -4.3756251 -5.6587501
-24.546249 -4.2793751 -5.6849999
-24.540001 -4.1799998 -5.7237501
-24.535625 -4.0793748 -5.7537498
-24.539375 -3.9762499 -5.7918749
-24.5425 -3.879375 -5.8287501
-24.53125 -3.78 -5.8400002
-24.513124 -3.680625 -5.8443751
-24.501875 -3.5843749 -5.8087502
-24.499374 -3.4849999 -5.8031249
-24.498751 -3.3856249 -5.7975001
-24.500626 -3.2893751 -5.7868748
-24.500626 -3.1900001 -5.7562499
-24.5 -3.090625 -5.7318749
-24.50375 -2.994375 -5.7062502
-24.522499 -6.5706248 -3.345
-24.50375 -6.4693751 -3.525625
-24.483749 -6.3668752 -3.68875
-24.475624 -6.2693748 -3.839375
-24.470625 -6.1693749 -3.9981251
-24.465 -6.0662498 -4.1568751
-24.45875 -5.9650002 -4.3024998
-24.449375 -5.8656249 -4.4393749
-24.440624 -5.7687502 -4.6012502
-24.431875 -5.6656251 -4.7356248
-24.422501 -5.5650001 -4.8762498
-24.421249 -5.4650002 -4.9612498
-24.41625 -5.3656249 -5.0656252
-24.401251 -5.2693748 -5.1700001
-24.393126 -5.1700001 -5.2537498
-24.393126 -5.0700002 -5.3018751
-24.395 -4.9699998 -5.3487501
-24.395 -4.8699999 -5.390625
-24.39625 -4.77 -5.4587498
-24.401251 -4.6706252 -5.5149999
-24.403749 -4.5743752 -5.5662498
-24.406876 -4.4749999 -5.5987501
-24.407499 -4.3756251 -5.6212502
-24.403126 -4.2793751 -5.6487498
-24.398125 -4.1799998 -5.6975002
-24.400625 -4.0793748 -5.74125
-24.401875 -3.9768751 -5.7687502
-24.395624 -3.879375 -5.7918749
-24.380625 -3.7806251 -5.7975001
-24.366875 -3.6812501 -5.8074999
-24.36125 -3.5843749 -5.7918749
-24.360001 -3.4849999 -5.7862501
-24.358126 -3.3856249 -5.7687502
-24.361876 -3.2893751 -5.7531252
-24.360624 -3.1900001 -5.7287502
-24.3575 -3.090625 -5.6999998
-24.360001 -2.994375 -5.6612501
-24.38625 -6.6712499 -3.253125
-24.369375 -6.5700002 -3.43625
-24.349375 -6.46875 -3.5987501
-24.340626 -6.36625 -3.75
-24.334375 -6.2693748 -3.8924999
-24.328751 -6.1687498 -4.0387502
-24.320625 -6.0656252 -4.2018752
-24.314375 -5.9650002 -4.3512502
-24.305626 -5.8656249 -4.49125
-24.297501 -5.7681251 -4.6193752
-24.285 -5.6656251 -4.7306252
-24.275 -5.5650001 -4.8768749
-24.27375 -5.4650002 -4.984375
-24.270624 -5.3656249 -5.0962501
-24.26 -5.2693748 -5.1700001
-24.256874 -5.1700001 -5.2150002
-24.258751 -5.0700002 -5.2525001
-24.251875 -4.9699998 -5.3099999
-24.247499 -4.8699999 -5.3493748
-24.247499 -4.7706251 -5.4299998
-24.254375 -4.6706252 -5.4974999
-24.258751 -4.5743752 -5.5462499
-24.262501 -4.4749999 -5.57125
-24.260626 -4.3756251 -5.5962501
-24.254999 -4.2793751 -5.6187501
-24.255625 -4.1799998 -5.6512499
-24.255625 -4.0799999 -5.6999998
-24.249374 -3.9793749 -5.7287502
-24.23625 -3.880625 -5.7506251
-24.22625 -3.7837501 -5.75
-24.224375 -3.684375 -5.75
-24.223749 -3.585 -5.75
-24.223125 -3.4849999 -5.7474999
-24.219999 -3.3856249 -5.734375
-24.2225 -3.2893751 -5.7237501
-24.223749 -3.1900001 -5.6975002
-24.220625 -3.090625 -5.6581249
-24.227501 -6.6706252 -3.3431251
-24.215626 -6.569375 -3.5037501
-24.203125 -6.4662499 -3.6543751
-24.199375 -6.3656249 -3.8
-24.19125 -6.2687502 -3.9506249
-24.184376 -6.1662502 -4.1062498
-24.175625 -6.0650001 -4.2462502
-24.168751 -5.9650002 -4.3868752
-24.159374 -5.8649998 -4.5418749
-24.15 -5.765625 -4.651875
-24.139999 -5.665 -4.7493749
-24.137501 -5.5650001 -4.8743749
-24.131874 -5.4650002 -4.9924998
-24.127501 -5.3656249 -5.0962501
-24.120001 -5.2693748 -5.1462498
-24.123751 -5.1700001 -5.1712499
-24.12875 -5.0700002 -5.2162499
-24.118126 -4.9699998 -5.2931252
-24.11125 -4.870625 -5.3274999
-24.106874 -4.7731252 -5.3856249
-24.1075 -4.6712499 -5.4468751
-24.108126 -4.5743752 -5.5031252
-24.113125 -4.4749999 -5.5387502
-24.11875 -4.3756251 -5.5743752
-24.119375 -4.2793751 -5.5962501
-24.119375 -4.1799998 -5.6243749
-24.11125 -4.0799999 -5.6612501
-24.096874 -3.98 -5.6900001
-24.08 -3.880625 -5.7150002
-24.074375 -3.784375 -5.7056251
-24.078751 -3.6849999 -5.6950002
-24.079374 -3.585 -5.6999998
-24.08 -3.4849999 -5.7049999
-24.080626 -3.3856249 -5.6999998
-24.086876 -3.2893751 -5.6793752
-24.089375 -3.1900001 -5.6424999
-24.085625 -3.090625 -5.600625
-24.0975 -6.8731251 -3.0975001
-24.090626 -6.7712498 -3.253125
-24.078125 -6.6700001 -3.3987501
-24.069374 -6.569375 -3.5337501
-24.059376 -6.4656248 -3.6737499
-24.049999 -6.3656249 -3.829375
-24.044374 -6.2687502 -3.99125
-24.039375 -6.1656251 -4.1512499
-24.030001 -6.0650001 -4.2793751
-24.02125 -5.9650002 -4.4175
-24.011875 -5.8649998 -4.5756249
-24.00625 -5.7649999 -4.6999998
-24.002501 -5.665 -4.808125
-24.000626 -5.5650001 -4.8931251
-23.991249 -5.4650002 -4.9787502
-23.98625 -5.3656249 -5.0631251
-23.983749 -5.2693748 -5.118125
-23.985624 -5.1700001 -5.1700001
-23.98875 -5.0700002 -5.2150002
-23.985001 -4.9699998 -5.2674999
-23.98 -4.870625 -5.3024998
-23.973749 -4.7737498 -5.3693752
-23.9725 -4.671875 -5.4193749
-23.971874 -4.5743752 -5.4699998
-23.974375 -4.4749999 -5.5218749
-23.97875 -4.3756251 -5.5637498
-23.97625 -4.2793751 -5.5799999
-23.965626 -4.1799998 -5.6112499
-23.95125 -4.0799999 -5.6368752
-23.939375 -3.98 -5.6556249
-23.934999 -3.880625 -5.6662502
-23.934376 -3.784375 -5.663125
-23.934999 -3.6849999 -5.6581249
-23.932501 -3.585 -5.6506252
-23.934376 -3.4849999 -5.6581249
-23.936251 -3.3856249 -5.6556249
-23.945 -3.2893751 -5.6243749
-23.950624 -3.1900001 -5.5925002
-23.942499 -6.870625 -3.16625
-23.935625 -6.77 -3.309375
-23.933125 -6.6700001 -3.4468751
-23.92625 -6.5687499 -3.5806251
-23.918751 -6.4656248 -3.7212501
-23.91 -6.3656249 -3.8900001
-23.901251 -6.2681251 -4.0587502
-23.894375 -6.1656251 -4.2018752
-23.885626 -6.0650001 -4.3356252
-23.879375 -5.9650002 -4.4749999
-23.870625 -5.8649998 -4.598125
-23.864374 -5.7649999 -4.6993752
-23.856874 -5.665 -4.8156252
-23.850624 -5.5650001 -4.9056249
-23.8475 -5.4650002 -4.9693751
-23.844376 -5.3656249 -5.0443749
-23.844376 -5.2693748 -5.1075001
-23.842501 -5.1700001 -5.1675
-23.838751 -5.0700002 -5.2043748
-23.8325 -4.9699998 -5.2600002
-23.828751 -4.870625 -5.3093748
-23.827499 -4.774375 -5.3693752
-23.831875 -4.6743751 -5.4012499
-23.83625 -4.5749998 -5.4406252
-23.835625 -4.4749999 -5.4881248
-23.833124 -4.3756251 -5.526875
-23.825001 -4.2793751 -5.5456252
-23.810625 -4.1799998 -5.5718751
-23.798124 -4.0799999 -5.5931249
-23.7925 -3.98 -5.6131248
-23.795 -3.880625 -5.6287498
-23.795626 -3.784375 -5.6312499
-23.793125 -3.6849999 -5.6343751
-23.789375 -3.585 -5.6193752
-23.790625 -3.4849999 -5.61625
-23.791876 -3.3856249 -5.61375
-23.799999 -3.2893751 -5.5799999
-23.80625 -3.1900001 -5.55125
-23.815001 -6.9699998 -3.05125
-23.80125 -6.8699999 -3.22
-23.794374 -6.77 -3.365
-23.79125 -6.6693749 -3.5225
-23.783751 -6.5662498 -3.6624999
-23.776251 -6.4650002 -3.8025
-23.771875 -6.3649998 -3.95875
-23.760626 -6.265625 -4.1112499
-23.750626 -6.165 -4.234375
-23.741249 -6.0650001 -4.3625002
-23.738125 -5.9650002 -4.49125
-23.73 -5.8649998 -4.6037502
-23.723749 -5.7649999 -4.69625
-23.7125 -5.665 -4.8093748
-23.700001 -5.5650001 -4.9200001
-23.6975 -5.4650002 -4.9862499
-23.696251 -5.3656249 -5.0418749
-23.698126 -5.2693748 -5.089375
-23.692499 -5.1700001 -5.1487498
-23.688126 -5.0700002 -5.1843748
-23.6875 -4.9699998 -5.2437501
-23.690001 -4.870625 -5.3068752
-23.690624 -4.774375 -5.36375
-23.694374 -4.6750002 -5.390625
-23.695 -4.5749998 -5.4193749
-23.692499 -4.4749999 -5.4556251
-23.685625 -4.3756251 -5.48
-23.674376 -4.2793751 -5.4906249
-23.663124 -4.1799998 -5.50875
-23.65625 -4.0799999 -5.535625
-23.655001 -3.98 -5.5412502
-23.658125 -3.880625 -5.55375
-23.656876 -3.784375 -5.5618749
-23.64875 -3.6849999 -5.5818748
-23.645 -3.585 -5.5718751
-23.649376 -3.4849999 -5.5599999
-23.651875 -3.3856249 -5.5662498
-23.658751 -3.2893751 -5.5487499
-23.66375 -3.1900001 -5.5237498
-23.676874 -7.1700001 -2.899375
-23.67375 -7.0700002 -3.0131249
-23.671249 -6.9699998 -3.14375
-23.656876 -6.8699999 -3.30375
-23.648125 -6.77 -3.441875
-23.63875 -6.6687498 -3.599375
-23.634375 -6.5656252 -3.7368751
-23.630625 -6.4650002 -3.8868749
-23.627501 -6.3649998 -4.0368748
-23.61875 -6.2649999 -4.1750002
-23.608749 -6.165 -4.288125
-23.596874 -6.0650001 -4.401875
-23.59375 -5.9650002 -4.5118752
-23.585625 -5.8649998 -4.6199999
-23.578751 -5.7649999 -4.714375
-23.568125 -5.665 -4.8099999
-23.560625 -5.5650001 -4.9000001
-23.55875 -5.4650002 -4.9575
-23.553749 -5.3656249 -5.015625
-23.555626 -5.2693748 -5.0549998
-23.551874 -5.1700001 -5.1256251
-23.55125 -5.0700002 -5.1750002
-23.555 -4.9699998 -5.223125
-23.557501 -4.870625 -5.2806249
-23.555626 -4.774375 -5.3306251
-23.556875 -4.6750002 -5.3537502
-23.549999 -4.5749998 -5.3781252
-23.543125 -4.4749999 -5.4074998
-23.536249 -4.3756251 -5.4299998
-23.526875 -4.2793751 -5.4431248
-23.522499 -4.1799998 -5.46
-23.519375 -4.0799999 -5.5081248
-23.515625 -3.98 -5.5062499
-23.515625 -3.880625 -5.5062499
-23.515625 -3.784375 -5.5062499
-23.514376 -3.6849999 -5.5149999
-23.51375 -3.585 -5.5124998
-23.514999 -3.4849999 -5.5093751
-23.514999 -3.3856249 -5.5124998
-23.516874 -3.2893751 -5.5062499
-23.520624 -3.1900001 -5.4831252
-23.528749 -7.27 -2.8568749
-23.525 -7.1700001 -2.9918749
-23.520624 -7.069375 -3.1112499
-23.518126 -6.9699998 -3.253125
-23.508125 -6.8699999 -3.39375
-23.499374 -6.7693748 -3.52125
-23.49 -6.6662502 -3.6781249
-23.48625 -6.5650001 -3.8062501
-23.483749 -6.4650002 -3.953125
-23.477501 -6.3649998 -4.0875001
-23.469999 -6.2649999 -4.2137499
-23.4625 -6.165 -4.3181248
-23.451876 -6.0650001 -4.4200001
-23.448126 -5.9650002 -4.5174999
-23.440624 -5.8649998 -4.6199999
-23.435625 -5.7649999 -4.703125
-23.428749 -5.665 -4.7674999
-23.424376 -5.5650001 -4.8531251
-23.42375 -5.4650002 -4.9187498
-23.421875 -5.3656249 -4.9881248
-23.42375 -5.2693748 -5.0318751
-23.420626 -5.1700001 -5.109375
-23.418751 -5.0700002 -5.1675
-23.421249 -4.9699998 -5.1993752
-23.418125 -4.870625 -5.2468748
-23.41375 -4.774375 -5.30125
-23.411249 -4.6750002 -5.32125
-23.39875 -4.5749998 -5.3568749
-23.383751 -4.4749999 -5.4031248
-23.37875 -4.3756251 -5.4268751
-23.375626 -4.2793751 -5.4343748
-23.376249 -4.1799998 -5.4406252
-23.377501 -4.0799999 -5.4612498
-23.375 -3.98 -5.4493752
-23.375626 -3.880625 -5.4431248
-23.376249 -3.784375 -5.44625
-23.377501 -3.6849999 -5.461875
-23.378124 -3.585 -5.4650002
-23.379375 -3.4849999 -5.461875
-23.379375 -3.3856249 -5.461875
-23.379375 -3.2893751 -5.4562502
-23.384375 -7.3699999 -2.809375
-23.37875 -7.27 -2.934375
-23.37125 -7.1693749 -3.0756249
-23.366249 -7.066875 -3.1956251
-23.36125 -6.96875 -3.3306251
-23.352501 -6.8699999 -3.4649999
-23.346251 -6.7693748 -3.59375
-23.340626 -6.6656251 -3.7474999
-23.339375 -6.5650001 -3.8712499
-23.338751 -6.4650002 -4.0081248
-23.3325 -6.3649998 -4.1143751
-23.320625 -6.2649999 -4.225625
-23.311251 -6.165 -4.3331251
-23.303749 -6.0650001 -4.4231248
-23.299376 -5.9650002 -4.5118752
-23.295 -5.8649998 -4.6043749
-23.293125 -5.7649999 -4.6781249
-23.286249 -5.665 -4.7462502
-23.282499 -5.5650001 -4.8518748
-23.285625 -5.4650002 -4.910625
-23.290625 -5.3656249 -4.9631252
-23.2925 -5.2693748 -5.0206251
-23.286249 -5.1700001 -5.0987501
-23.276875 -5.0700002 -5.1462498
-23.27375 -4.9699998 -5.163125
-23.266251 -4.870625 -5.2049999
-23.260626 -4.774375 -5.2756252
-23.254999 -4.6750002 -5.3062501
-23.245001 -4.5749998 -5.3312502
-23.234375 -4.4749999 -5.3568749
-23.234375 -4.3756251 -5.3775001
-23.2325 -4.2793751 -5.3931251
-23.231874 -4.1799998 -5.4081249
-23.2325 -4.0799999 -5.4143748
-23.231874 -3.98 -5.4112501
-23.237499 -3.880625 -5.4012499
-23.237499 -3.784375 -5.4012499
-23.233126 -3.6849999 -5.4168749
-23.233126 -3.585 -5.4168749
-23.238125 -3.4849999 -5.4043751
-23.239374 -3.3856249 -5.4012499
-23.25 -7.5706248 -2.615
-23.243126 -7.4699998 -2.746875
-23.235001 -7.3699999 -2.880625
-23.226875 -7.27 -3.0131249
-23.220625 -7.1687498 -3.145
-23.21875 -7.0656252 -3.264375
-23.213125 -6.9662499 -3.3956251
-23.205 -6.8693752 -3.5225
-23.19875 -6.7687502 -3.6375
-23.191875 -6.6656251 -3.7887499
-23.189375 -6.5650001 -3.9087501
-23.188749 -6.4650002 -4.024375
-23.183125 -6.3643751 -4.1199999
-23.17 -6.2649999 -4.2287502
-23.16 -6.165 -4.3337498
-23.151875 -6.0650001 -4.4124999
-23.147499 -5.9650002 -4.4968748
-23.14625 -5.8649998 -4.598125
-23.147499 -5.7649999 -4.6799998
-23.144375 -5.665 -4.7406249
-23.143126 -5.5650001 -4.8400002
-23.144375 -5.4650002 -4.9025002
-23.14625 -5.3656249 -4.9524999
-23.148125 -5.2693748 -4.9993749
-23.140625 -5.1700001 -5.0625
-23.130625 -5.0700002 -5.1068749
-23.124374 -4.9699998 -5.1287498
-23.116249 -4.870625 -5.163125
-23.110001 -4.774375 -5.2381248
-23.102501 -4.6750002 -5.2781248
-23.096874 -4.5749998 -5.30125
-23.094999 -4.4749999 -5.3099999
-23.098749 -4.3756251 -5.3274999
-23.098749 -4.2793751 -5.3325
-23.098749 -4.1799998 -5.3356252
-23.0975 -4.0799999 -5.3387499
-23.093124 -3.98 -5.3568749
-23.095625 -3.880625 -5.3668752
-23.096251 -3.784375 -5.3693752
-23.094999 -3.6849999 -5.3724999
-23.094999 -3.585 -5.3724999
-23.096251 -3.4849999 -5.3693752
-23.096251 -3.3856249 -5.3693752
-23.10125 -7.5706248 -2.6568749
-23.091875 -7.4699998 -2.796875
-23.084999 -7.3699999 -2.9324999
-23.079374 -7.2693748 -3.0725
-23.0725 -7.1662502 -3.1956251
-23.07 -7.0650001 -3.3118751
-23.061874 -6.9656248 -3.43875
-23.055626 -6.8687501 -3.5699999
-23.050625 -6.7662501 -3.6837499
-23.044374 -6.665 -3.82125
-23.038124 -6.5650001 -3.931875
-23.035 -6.464375 -4.04
-23.029375 -6.3618751 -4.1356249
-23.016874 -6.2643752 -4.2437501
-23.01 -6.165 -4.3362498
-23.004375 -6.0650001 -4.4175
-23.003124 -5.9650002 -4.493125
-22.999374 -5.8649998 -4.5831251
-22.996876 -5.7649999 -4.6668749
-22.995625 -5.665 -4.7281251
-22.996876 -5.5650001 -4.8162498
-22.999374 -5.4650002 -4.8775001
-23 -5.3656249 -4.92875
-23.002501 -5.2693748 -4.9637499
-22.994375 -5.1700001 -5.0206251
-22.984375 -5.0700002 -5.0656252
-22.976875 -4.9699998 -5.0887499
-22.969999 -4.870625 -5.1187501
-22.965 -4.774375 -5.1881251
-22.959999 -4.6750002 -5.2206249
-22.956249 -4.5749998 -5.2443752
-22.956875 -4.4749999 -5.2550001
-22.959999 -4.3756251 -5.2775002
-22.959375 -4.2793751 -5.285625
-22.959375 -4.1799998 -5.285625
-22.959375 -4.0799999 -5.2887502
-22.958124 -3.98 -5.3043752
-22.95875 -3.880625 -5.3099999
-22.95875 -3.784375 -5.3099999
-22.958124 -3.6849999 -5.3125
-22.958124 -3.585 -5.3125
-22.958124 -3.4849999 -5.3125
-22.965626 -7.6712499 -2.56125
-22.955626 -7.5700002 -2.704375
-22.945 -7.4699998 -2.8525
-22.936874 -7.3699999 -2.985625
-22.934376 -7.2693748 -3.1087501
-22.929375 -7.1656251 -3.2318749
-22.926874 -7.0650001 -3.3487501
-22.915625 -6.9656248 -3.4649999
-22.909374 -6.8687501 -3.5912499
-22.903749 -6.765625 -3.7037499
-22.89875 -6.665 -3.8375001
-22.893126 -6.5650001 -3.9375
-22.885626 -6.464375 -4.0425
-22.87875 -6.3612499 -4.1381249
-22.866875 -6.2643752 -4.2437501
-22.859375 -6.165 -4.32125
-22.854376 -6.0650001 -4.4068751
-22.855 -5.9650002 -4.4937501
-22.85125 -5.8649998 -4.5774999
-22.85 -5.765625 -4.6612501
-22.85125 -5.665 -4.73
-22.853125 -5.5650001 -4.80375
-22.853125 -5.4650002 -4.8631248
-22.850624 -5.3656249 -4.90625
-22.853125 -5.2693748 -4.9393749
-22.845625 -5.1700001 -5
-22.836876 -5.0700002 -5.0387502
-22.833124 -4.9699998 -5.0500002
-22.825624 -4.870625 -5.0762501
-22.82 -4.774375 -5.1287498
-22.819374 -4.6750002 -5.1599998
-22.82 -4.5749998 -5.1937499
-22.821875 -4.4749999 -5.2150002
-22.821875 -4.3756251 -5.225625
-22.816875 -4.2793751 -5.2381248
-22.815624 -4.1799998 -5.24125
-22.815624 -4.0799999 -5.24125
-22.815001 -3.98 -5.2474999
-22.814375 -3.880625 -5.2443752
-22.813749 -3.784375 -5.2468748
-22.811874 -3.6849999 -5.2600002
-22.811251 -3.585 -5.2624998
-22.823126 -7.6706252 -2.5775001
-22.813126 -7.5700002 -2.723125
-22.80125 -7.4699998 -2.878125
-22.791876 -7.3699999 -3.0081251
-22.78875 -7.2693748 -3.1231251
-22.78125 -7.1656251 -3.2406249
-22.7775 -7.0650001 -3.3568749
-22.766251 -6.9656248 -3.4706249
-22.759375 -6.8687501 -3.5999999
-22.752501 -6.765625 -3.7262499
-22.74625 -6.665 -3.858125
-22.744375 -6.5650001 -3.940625
-22.736876 -6.464375 -4.04
-22.730625 -6.3618751 -4.1356249
-22.719999 -6.2643752 -4.2406249
-22.713125 -6.165 -4.3181248
-22.713751 -6.0650001 -4.4043751
-22.713751 -5.9650002 -4.495625
-22.7075 -5.8656249 -4.5618749
-22.706249 -5.7681251 -4.63375
-22.70875 -5.6656251 -4.7168751
-22.705626 -5.5650001 -4.7925
-22.701876 -5.4650002 -4.8431249
-22.698126 -5.3656249 -4.8737502
-22.702499 -5.2693748 -4.9168749
-22.6975 -5.1700001 -4.9856248
-22.690624 -5.0700002 -5.0181251
-22.688126 -4.9699998 -5.0262499
-22.679375 -4.870625 -5.0568752
-22.67375 -4.774375 -5.0887499
-22.67625 -4.6750002 -5.1100001
-22.678749 -4.5749998 -5.13375
-22.676874 -4.4749999 -5.1668749
-22.676874 -4.3756251 -5.1750002
-22.674999 -4.2793751 -5.1812501
-22.674999 -4.1799998 -5.1812501
-22.674376 -4.0799999 -5.1843748
-22.671249 -3.98 -5.1937499
-22.668125 -3.880625 -5.1843748
-22.668125 -3.784375 -5.1843748
-22.67 -3.6849999 -5.1993752
-22.670626 -3.585 -5.2024999
-22.673124 -7.6706252 -2.590625
-22.665001 -7.5700002 -2.7281251
-22.658751 -7.4699998 -2.8731251
-22.65 -7.3699999 -2.994375
-22.643126 -7.2693748 -3.1143751
-22.63125 -7.1656251 -3.24
-22.625 -7.0650001 -3.369375
-22.616875 -6.9656248 -3.483125
-22.61125 -6.8687501 -3.6018751
-22.606874 -6.765625 -3.7193749
-22.598749 -6.665 -3.858125
-22.598125 -6.5650001 -3.940625
-22.59375 -6.4650002 -4.0300002
-22.5875 -6.36375 -4.1224999
-22.576876 -6.2649999 -4.225625
-22.571251 -6.165 -4.3118749
-22.573126 -6.0650001 -4.38375
-22.5725 -5.9650002 -4.4568748
-22.56875 -5.8656249 -4.5362501
-22.566875 -5.7687502 -4.6224999
-22.568125 -5.6656251 -4.7062502
-22.5625 -5.5650001 -4.774375
-22.55875 -5.4650002 -4.8187499
-22.551874 -5.3656249 -4.8487501
-22.549999 -5.2693748 -4.8924999
-22.544374 -5.1700001 -4.9524999
-22.541876 -5.0700002 -4.9856248
-22.539375 -4.9699998 -5.0025001
-22.533125 -4.870625 -5.0237498
-22.534374 -4.774375 -5.0500002
-22.53875 -4.6750002 -5.0681248
-22.53875 -4.5749998 -5.0818748
-22.535625 -4.4749999 -5.1149998
-22.536875 -4.3756251 -5.13375
-22.535 -4.2793751 -5.1487498
-22.535 -4.1799998 -5.1543751
-22.535625 -4.0799999 -5.151875
-22.535 -3.98 -5.1550002
-22.534374 -3.880625 -5.151875
-22.534374 -3.784375 -5.151875
-22.534374 -3.6849999 -5.1574998
-22.525 -7.6706252 -2.5975001
-22.516874 -7.5700002 -2.723125
-22.513124 -7.4699998 -2.8475001
-22.504375 -7.3699999 -2.9768751
-22.495001 -7.2693748 -3.1175001
-22.4825 -7.1656251 -3.2406249
-22.47625 -7.0650001 -3.369375
-22.473125 -6.9656248 -3.485625
-22.465626 -6.8687501 -3.609375
-22.460625 -6.765625 -3.7162499
-22.455 -6.665 -3.8575001
-22.450001 -6.5650001 -3.9506249
-22.445 -6.464375 -4.04
-22.440624 -6.3625002 -4.1268749
-22.434999 -6.2643752 -4.2224998
-22.430626 -6.165 -4.3150001
-22.4275 -6.0650001 -4.3775001
-22.424376 -5.9650002 -4.4337502
-22.426874 -5.8656249 -4.5143752
-22.43 -5.7687502 -4.6012502
-22.430626 -5.6662502 -4.6700001
-22.425625 -5.5650001 -4.7356248
-22.420626 -5.4650002 -4.7824998
-22.411875 -5.3656249 -4.8243752
-22.407499 -5.2693748 -4.86625
-22.405001 -5.1700001 -4.9056249
-22.403126 -5.0700002 -4.9274998
-22.396875 -4.9699998 -4.9706249
-22.391874 -4.870625 -5
-22.395 -4.774375 -5.0362501
-22.398125 -4.6750002 -5.0599999
-22.395624 -4.5749998 -5.0774999
-22.391874 -4.4749999 -5.1018748
-22.391874 -4.3756251 -5.1100001
-22.391251 -4.2793751 -5.118125
-22.394375 -4.1799998 -5.1256251
-22.398125 -4.0799999 -5.1156249
-22.39875 -3.98 -5.1131248
-22.39875 -3.880625 -5.1131248
-22.398125 -3.784375 -5.1156249
-22.379999 -7.6706252 -2.5675001
-22.372499 -7.5700002 -2.704375
-22.366249 -7.4699998 -2.8362501
-22.3575 -7.3699999 -2.9649999
-22.349375 -7.2693748 -3.1031251
-22.34 -7.1656251 -3.2249999
-22.331875 -7.0650001 -3.3543749
-22.328751 -6.9656248 -3.4675
-22.321251 -6.8687501 -3.59375
-22.31625 -6.765625 -3.7006249
-22.313126 -6.665 -3.8375001
-22.303125 -6.5650001 -3.9375
-22.297501 -6.4650002 -4.024375
-22.296875 -6.3643751 -4.105
-22.295626 -6.2649999 -4.2125001
-22.294374 -6.165 -4.3218751
-22.293125 -6.0650001 -4.3781252
-22.290001 -5.9650002 -4.4250002
-22.293751 -5.8656249 -4.4962502
-22.298124 -5.7693748 -4.5749998
-22.297501 -5.6687498 -4.63375
-22.293125 -5.5656252 -4.7081251
-22.288124 -5.4650002 -4.7562499
-22.279375 -5.3656249 -4.7950001
-22.27375 -5.2693748 -4.8274999
-22.268749 -5.1700001 -4.86625
-22.264376 -5.0700002 -4.8931251
-22.259375 -4.9699998 -4.9293752
-22.254375 -4.870625 -4.953125
-22.254375 -4.774375 -4.99125
-22.255625 -4.6750002 -5.0149999
-22.254375 -4.5749998 -5.0293751
-22.253124 -4.4749999 -5.0625
-22.252501 -4.3756251 -5.0831251
-22.25 -4.2793751 -5.0962501
-22.251249 -4.1799998 -5.1018748
-22.254375 -4.0799999 -5.089375
-22.255625 -3.98 -5.0837498
-22.255625 -3.8812499 -5.0837498
-22.255625 -3.784375 -5.0837498
-22.241249 -7.6712499 -2.53
-22.237499 -7.5700002 -2.675
-22.23 -7.4699998 -2.809375
-22.218124 -7.3699999 -2.934375
-22.206249 -7.2693748 -3.08125
-22.199375 -7.1656251 -3.2168751
-22.190624 -7.0650001 -3.3456249
-22.186251 -6.9656248 -3.4493749
-22.18 -6.8687501 -3.5756249
-22.17625 -6.765625 -3.6893749
-22.17375 -6.665 -3.8243749
-22.165001 -6.5650001 -3.9324999
-22.160625 -6.4650002 -4.0250001
-22.161875 -6.3649998 -4.1112499
-22.158751 -6.2649999 -4.214375
-22.154375 -6.165 -4.3043752
-22.154375 -6.0650001 -4.3543749
-22.1525 -5.9650002 -4.4093752
-22.155001 -5.8656249 -4.4856248
-22.157499 -5.7693748 -4.55375
-22.153749 -5.6693749 -4.609375
-22.149376 -5.5656252 -4.6856251
-22.147499 -5.4656248 -4.7287502
-22.139999 -5.3656249 -4.7562499
-22.134375 -5.2693748 -4.7800002
-22.126249 -5.1700001 -4.8249998
-22.121876 -5.0700002 -4.8612499
-22.119375 -4.9699998 -4.8724999
-22.112499 -4.870625 -4.8825002
-22.111876 -4.774375 -4.9193749
-22.114374 -4.6750002 -4.9549999
-22.110624 -4.5749998 -4.9812498
-22.106874 -4.4749999 -5.0181251
-22.106251 -4.3756251 -5.0262499
-22.106251 -4.2793751 -5.0318751
-22.108749 -4.1799998 -5.046875
-22.110624 -4.0799999 -5.0443749
-22.113125 -3.9806249 -5.0318751
-22.11375 -3.88375 -5.0287499
-22.10125 -7.5706248 -2.635
-22.091875 -7.4699998 -2.7731249
-22.077499 -7.3699999 -2.9075
-22.063749 -7.2693748 -3.058125
-22.058125 -7.1656251 -3.1956251
-22.050625 -7.0650001 -3.3275001
-22.047501 -6.9656248 -3.440625
-22.04125 -6.8687501 -3.566875
-22.038124 -6.765625 -3.6743751
-22.033751 -6.665 -3.815625
-22.025 -6.5650001 -3.9293749
-22.020624 -6.4650002 -4.0218749
-22.02 -6.3649998 -4.0906248
-22.014999 -6.2649999 -4.1750002
-22.008751 -6.165 -4.2462502
-22.01375 -6.0650001 -4.3049998
-22.016874 -5.9650002 -4.3812499
-22.01375 -5.8656249 -4.4612498
-22.010626 -5.7693748 -4.5174999
-22.003124 -5.6693749 -4.578125
-21.998751 -5.566875 -4.6556249
-22 -5.4681249 -4.6906252
-21.995625 -5.3668752 -4.7112498
-21.993126 -5.2693748 -4.725625
-21.986876 -5.1700001 -4.7750001
-21.984375 -5.0700002 -4.8162498
-21.983126 -4.9699998 -4.8299999
-21.97625 -4.8712502 -4.8487501
-21.975 -4.774375 -4.8868752
-21.977501 -4.6750002 -4.9137502
-21.971251 -4.5749998 -4.9456248
-21.966249 -4.4749999 -4.98875
-21.965626 -4.3756251 -4.9968748
-21.965 -4.2793751 -5.0025001
-21.965626 -4.1799998 -5.015625
-21.966249 -4.0799999 -5.0206251
-21.966875 -3.9806249 -5.0174999
-21.966875 -3.8843751 -5.0174999
-21.9625 -7.5706248 -2.5962501
-21.952499 -7.4699998 -2.7437501
-21.943125 -7.3699999 -2.8868749
-21.93 -7.2693748 -3.036875
-21.91625 -7.1656251 -3.1775
-21.906876 -7.0650001 -3.3062501
-21.904375 -6.9656248 -3.423125
-21.899376 -6.8687501 -3.5487499
-21.895624 -6.765625 -3.6556251
-21.889999 -6.665 -3.7893751
-21.883125 -6.5650001 -3.903125
-21.88125 -6.4650002 -4.0018749
-21.88125 -6.3649998 -4.0487499
-21.875 -6.265625 -4.1168752
-21.866875 -6.165 -4.1893749
-21.87125 -6.0650001 -4.2674999
-21.874374 -5.9650002 -4.359375
-21.868126 -5.8656249 -4.4256248
-21.86875 -5.7693748 -4.4699998
-21.86375 -5.6700001 -4.5231252
-21.859375 -5.569375 -4.6012502
-21.8575 -5.4699998 -4.6437502
-21.851875 -5.3693752 -4.6693749
-21.850624 -5.27 -4.6812501
-21.848125 -5.1700001 -4.7249999
-21.844376 -5.0700002 -4.7643752
-21.84375 -4.9706249 -4.7981248
-21.838751 -4.8737502 -4.8268752
-21.835625 -4.7750001 -4.86625
-21.838125 -4.6750002 -4.8931251
-21.83375 -4.5749998 -4.92625
-21.83 -4.4749999 -4.9556251
-21.828751 -4.3756251 -4.9612498
-21.82625 -4.2793751 -4.9737501
-21.82625 -4.1799998 -4.9818749
-21.827499 -4.0799999 -4.9943752
-21.828125 -3.9806249 -4.9968748
-21.828751 -3.8843751 -5
-21.813749 -7.4699998 -2.71
-21.808125 -7.3699999 -2.860625
-21.796875 -7.2693748 -3.01875
-21.7775 -7.1662502 -3.163125
-21.766251 -7.0650001 -3.2831249
-21.76125 -6.9656248 -3.4043751
-21.7575 -6.8687501 -3.534375
-21.75625 -6.765625 -3.641875
-21.751875 -6.665 -3.74
-21.748751 -6.5650001 -3.8325
-21.748125 -6.4650002 -3.9324999
-21.748125 -6.3656249 -3.9937501
-21.73875 -6.2674999 -4.078125
-21.729376 -6.1656251 -4.1593752
-21.733749 -6.0650001 -4.2393751
-21.735624 -5.9650002 -4.3431249
-21.726875 -5.8656249 -4.3987498
-21.727501 -5.7693748 -4.4281249
-21.720625 -5.6700001 -4.4787502
-21.715 -5.5700002 -4.5568752
-21.711876 -5.4699998 -4.6062498
-21.709375 -5.3699999 -4.6437502
-21.70875 -5.27 -4.6750002
-21.703751 -5.1700001 -4.7268748
-21.6975 -5.0700002 -4.7556248
-21.698126 -4.9706249 -4.7787499
-21.695 -4.8743749 -4.8006248
-21.69125 -4.7750001 -4.8400002
-21.69375 -4.6750002 -4.86625
-21.690624 -4.5749998 -4.8931251
-21.689375 -4.4749999 -4.9237499
-21.689375 -4.3756251 -4.9293752
-21.688749 -4.2793751 -4.9324999
-21.6875 -4.1799998 -4.9349999
-21.682501 -4.0799999 -4.9499998
-21.682501 -3.9806249 -4.9581251
-21.671249 -7.4699998 -2.680625
-21.665625 -7.3699999 -2.8387499
-21.657499 -7.27 -3.0018749
-21.640625 -7.1687498 -3.131875
-21.629375 -7.0656252 -3.2493751
-21.625626 -6.9656248 -3.39375
-21.624374 -6.8687501 -3.538125
-21.625626 -6.7662501 -3.6387501
-21.61875 -6.665 -3.7137499
-21.610624 -6.5650001 -3.7850001
-21.602501 -6.4650002 -3.881875
-21.5975 -6.3649998 -3.9793749
-21.595625 -6.2662501 -4.0768752
-21.594376 -6.165 -4.15625
-21.594999 -6.0650001 -4.2224998
-21.590626 -5.9650002 -4.3068752
-21.5825 -5.8656249 -4.3543749
-21.5825 -5.7693748 -4.3868752
-21.575624 -5.6700001 -4.44875
-21.570625 -5.5700002 -4.5275002
-21.56875 -5.4699998 -4.5774999
-21.565624 -5.3699999 -4.6218748
-21.563749 -5.2706251 -4.6668749
-21.555626 -5.1706252 -4.7212501
-21.550625 -5.0706248 -4.7418752
-21.55125 -4.9712501 -4.75
-21.550625 -4.8743749 -4.76125
-21.548124 -4.7750001 -4.7975001
-21.549999 -4.6750002 -4.82125
-21.546249 -4.5756249 -4.8431249
-21.545 -4.475625 -4.86625
-21.545626 -4.3762498 -4.8724999
-21.545626 -4.2800002 -4.8724999
-21.545626 -4.1799998 -4.8775001
-21.54125 -4.0799999 -4.8956251
-21.529375 -7.4706249 -2.6412499
-21.523125 -7.3699999 -2.796875
-21.51375 -7.27 -2.9649999
-21.5 -7.1693749 -3.0999999
-21.489374 -7.0656252 -3.221875
-21.487499 -6.9662499 -3.3599999
-21.485001 -6.8693752 -3.506875
-21.484375 -6.7687502 -3.618125
-21.479376 -6.6656251 -3.69625
-21.474375 -6.5650001 -3.7425001
-21.465626 -6.4650002 -3.8225
-21.455626 -6.3656249 -3.944375
-21.456249 -6.2681251 -4.0450001
-21.459375 -6.1662502 -4.1243749
-21.45875 -6.0650001 -4.180625
-21.450624 -5.9650002 -4.2462502
-21.440624 -5.8656249 -4.2943749
-21.436251 -5.7693748 -4.3418751
-21.43 -5.6700001 -4.4074998
-21.425625 -5.5700002 -4.4856248
-21.424376 -5.4699998 -4.5349998
-21.42 -5.370625 -4.5831251
-21.4175 -5.2737498 -4.6224999
-21.409374 -5.1743751 -4.6612501
-21.40625 -5.0743752 -4.6750002
-21.41 -4.9743748 -4.6906252
-21.41375 -4.875 -4.7131252
-21.41375 -4.7750001 -4.7506251
