ply
format ascii 1.0
comment PCL generated
element vertex 1611
property float x
property float y
property float z
element camera 0
property float view_px
property float view_py
property float view_pz
property float x_axisx
property float x_axisy
property float x_axisz
property float y_axisx
property float y_axisy
property float y_axisz
property float z_axisx
property float z_axisy
property float z_axisz
property float focal
property float scalex
property float scaley
property float centerx
property float centery
property int viewportx
property int viewporty
property float k1
property float k2
end_header
-56.3125 40.134998 11.451875
-56.311874 40.236252 11.439375
-56.313126 40.337502 11.42375
-56.320625 40.445625 11.46375
-56.326248 40.55125 11.506875
-56.330624 40.659374 11.52875
-56.331249 40.76125 11.53125
-56.331249 40.865623 11.534375
-56.3325 40.970001 11.553125
-56.338749 41.07375 11.571875
-56.340626 41.176876 11.578125
-56.344376 41.282501 11.590625
-56.344376 41.384998 11.6
-56.346249 41.489376 11.60625
-56.345001 41.591251 11.605625
-56.346249 41.695625 11.60875
-56.353748 41.799374 11.624375
-56.355 41.901249 11.6275
-56.356251 42.005627 11.633125
-56.361874 42.113125 11.66125
-56.361874 42.215 11.664375
-56.360626 42.318748 11.66125
-56.356876 42.420624 11.654375
-56.354374 42.521252 11.648125
-56.355625 42.625 11.65125
-56.361252 42.73 11.67
-56.360626 42.834373 11.691875
-56.359375 42.939377 11.698125
-56.359375 43.040627 11.70125
-56.358124 43.144375 11.71375
-56.360001 43.247501 11.72625
-56.362499 43.357498 11.763125
-56.363125 43.460625 11.785
-56.362499 43.564999 11.79
-56.362499 43.671249 11.82
-56.365002 43.778751 11.854375
-56.365623 43.881248 11.863125
-56.365623 43.988125 11.87875
-56.365623 44.09 11.881875
-56.365623 44.193748 11.87875
-56.366875 44.294998 11.881875
-56.374374 44.399376 11.900625
-56.3825 44.505001 11.925625
-56.384377 44.610001 11.934375
-56.380001 44.714375 11.946875
-56.379375 44.818748 11.949375
-56.379375 44.919998 11.9525
-56.381248 45.025002 11.976875
-56.387501 45.130001 11.995625
-56.388748 45.234375 11.99875
-56.388748 45.335625 12.001875
-56.389374 45.440624 12.005
-56.389374 45.543751 12.005
-56.389374 45.645626 12.005
-56.389374 45.749374 12.001875
-56.389374 45.853748 12.001875
-56.387501 45.954376 11.995625
-56.381248 46.055626 11.98
-56.381248 46.160625 11.983125
-56.38625 46.264374 11.995625
-56.38625 46.3675 11.993125
-56.387501 46.469376 11.9925
-56.383751 46.570625 11.968125
-56.385624 46.671249 11.94875
-56.389999 46.775002 11.95625
-56.393749 46.876251 11.943125
-56.393124 46.978748 11.934375
-56.38625 47.076248 11.909375
-56.384998 47.18 11.909375
-56.383751 47.285 11.928125
-56.381874 47.388748 11.931875
-56.383125 47.490623 11.935
-56.383751 47.595627 11.94
-56.380001 47.699375 11.953125
-56.375626 47.80125 11.94
-56.381248 47.904999 11.9375
-56.38625 48.009377 11.946875
-56.387501 48.113125 11.946875
-56.389999 48.213749 11.928125
-56.381874 48.310623 11.90375
-56.369373 48.411251 11.875625
-56.364376 48.514374 11.875625
-56.364376 48.618752 11.875625
-56.36375 48.71875 11.854375
-56.921875 25.877501 16.768749
-56.898125 25.970625 16.575624
-56.870625 26.065624 16.411249
-56.841251 26.160625 16.264376
-56.814999 26.255625 16.13875
-56.791874 26.353125 16.005625
-56.769375 26.445625 15.87875
-56.745625 26.540625 15.76375
-56.726875 26.639376 15.6475
-56.709999 26.73625 15.54125
-56.692501 26.834375 15.4275
-56.678749 26.929375 15.325
-56.664375 27.025625 15.22875
-56.645626 27.120625 15.10625
-56.644375 27.21875 15.005625
-56.634377 27.311251 14.88625
-56.611874 27.406876 14.758125
-56.59375 27.5075 14.6825
-56.577499 27.604376 14.606875
-56.565624 27.70125 14.49625
-56.555 27.79875 14.399375
-56.5425 27.895624 14.32625
-56.535 27.99375 14.245
-56.52375 28.089375 14.146875
-56.505001 28.186251 14.0375
-56.502499 28.283751 13.951875
-56.4925 28.379999 13.84625
-56.477501 28.47625 13.75
-56.46875 28.575001 13.67
-56.458126 28.670626 13.599375
-56.455624 28.772499 13.555
-56.439999 28.865625 13.450625
-56.428123 28.964375 13.360625
-56.42625 29.063749 13.311875
-56.412498 29.161249 13.24625
-56.403126 29.26375 13.194375
-56.391876 29.36375 13.133125
-56.383125 29.460625 13.08625
-56.373749 29.559999 13.028125
-56.369999 29.66 12.9875
-56.366249 29.756874 12.929375
-56.366249 29.860001 12.89625
-56.359375 29.963751 12.870625
-56.348751 30.060625 12.815625
-56.34 30.159374 12.77
-56.341251 30.260626 12.735
-56.33625 30.360624 12.708125
-56.327499 30.463751 12.676875
-56.32 30.563749 12.625
-56.314377 30.661249 12.56875
-56.306873 30.76125 12.535625
-56.30125 30.86375 12.491875
-56.296249 30.959999 12.443125
-56.294998 31.060625 12.411875
-56.294998 31.163124 12.388125
-56.294376 31.264999 12.379375
-56.290001 31.365625 12.3475
-56.285625 31.46875 12.323125
-56.285625 31.567499 12.30125
-56.284374 31.669374 12.2675
-56.278751 31.769375 12.2275
-56.274376 31.870001 12.203125
-56.268124 31.969999 12.175625
-56.27 32.070625 12.135
-56.268749 32.169998 12.105
-56.263126 32.271252 12.083125
-56.265625 32.374374 12.06125
-56.266251 32.474998 12.055
-56.263126 32.575001 12.021875
-56.251877 32.674999 11.965625
-56.24625 32.775002 11.935625
-56.240002 32.875 11.88875
-56.228748 32.974377 11.8275
-56.224998 33.071877 11.796875
-56.21875 33.174374 11.771875
-56.217499 33.275623 11.769375
-56.215 33.379375 11.760625
-56.210625 33.480625 11.729375
-56.209373 33.580624 11.71
-56.205624 33.681252 11.67625
-56.203751 33.783127 11.64625
-56.200001 33.881874 11.633125
-56.193748 33.985626 11.63
-56.196251 34.089375 11.64
-56.204376 34.193748 11.645625
-56.203125 34.294376 11.63375
-56.196877 34.395 11.586875
-56.197498 34.49625 11.584375
-56.201248 34.600624 11.6
-56.206249 34.703751 11.618125
-56.202499 34.804375 11.619375
-56.201874 34.904999 11.571875
-56.201874 35.0075 11.563125
-56.201874 35.110001 11.563125
-56.199375 35.211876 11.556875
-56.1875 35.310623 11.523125
-56.182499 35.411251 11.50375
-56.181252 35.514374 11.48625
-56.180626 35.615623 11.48
-56.178749 35.719376 11.47375
-56.176876 35.821251 11.4675
-56.175625 35.924999 11.4675
-56.178123 36.028126 11.4925
-56.181252 36.130627 11.505
-56.181252 36.234375 11.505
-56.181252 36.336876 11.513125
-56.181252 36.439999 11.513125
-56.180626 36.5425 11.515625
-56.17625 36.64875 11.52625
-56.175625 36.750626 11.525625
-56.177502 36.854374 11.528125
-56.185001 36.956249 11.546875
-56.192501 37.063126 11.56875
-56.193127 37.165001 11.575
-56.193748 37.268749 11.571875
-56.195 37.370625 11.575
-56.19125 37.4725 11.5625
-56.185001 37.571251 11.53125
-56.186249 37.674374 11.528125
-56.185001 37.776249 11.523125
-56.18 37.87875 11.506875
-56.181252 37.980625 11.506875
-56.181252 38.084373 11.489375
-56.181252 38.185623 11.48875
-56.185001 38.290001 11.495
-56.183125 38.391251 11.5075
-56.181252 38.494999 11.51
-56.18 38.599377 11.516875
-56.1875 38.703751 11.5225
-56.188751 38.805 11.5225
-56.186249 38.908127 11.51375
-56.175625 39.006874 11.485625
-56.176876 39.109375 11.470625
-56.182499 39.21125 11.48
-56.181873 39.313751 11.47375
-56.17625 39.411877 11.439375
-56.177502 39.516251 11.439375
-56.182499 39.623123 11.451875
-56.18375 39.725624 11.458125
-56.178749 39.828751 11.44875
-56.1675 39.93 11.43625
-56.165001 40.031876 11.439375
-56.164375 40.135624 11.458125
-56.161251 40.240002 11.47375
-56.162498 40.345001 11.481875
-56.168751 40.453125 11.52
-56.178123 40.556252 11.550625
-56.18375 40.66375 11.571875
-56.184376 40.765625 11.575
-56.184376 40.869999 11.578125
-56.184376 40.973751 11.59375
-56.185001 41.075626 11.596875
-56.185001 41.178749 11.59375
-56.186249 41.28125 11.5875
-56.188751 41.3825 11.5875
-56.196877 41.489376 11.618125
-56.19875 41.594376 11.634375
-56.200001 41.698124 11.636875
-56.206249 41.800625 11.6425
-56.206249 41.903126 11.64
-56.205002 42.005627 11.64
-56.200001 42.110001 11.643125
-56.193748 42.21125 11.633125
-56.193748 42.315624 11.633125
-56.19875 42.419376 11.6425
-56.200001 42.520626 11.645
-56.201248 42.625 11.648125
-56.2075 42.729374 11.66375
-56.208752 42.831875 11.67625
-56.206249 42.938126 11.68875
-56.205002 43.040627 11.695
-56.205002 43.144375 11.70125
-56.205624 43.24625 11.7075
-56.208752 43.354374 11.741875
-56.209373 43.458752 11.7625
-56.211876 43.564377 11.771875
-56.217499 43.669998 11.808125
-56.2225 43.778126 11.85125
-56.221874 43.880627 11.856875
-56.216873 43.985001 11.86
-56.215626 44.08625 11.856875
-56.215626 44.189999 11.844375
-56.216873 44.291248 11.844375
-56.224998 44.396252 11.869375
-56.23 44.50375 11.90375
-56.228748 44.609375 11.913125
-56.2225 44.710625 11.9125
-56.221249 44.814377 11.9125
-56.221874 44.916874 11.918125
-56.22625 45.02375 11.953125
-56.232498 45.129375 11.976875
-56.233749 45.233749 11.98
-56.234375 45.334999 11.9775
-56.235001 45.438751 11.98
-56.234375 45.540001 11.974375
-56.229374 45.641251 11.961875
-56.22625 45.744373 11.9525
-56.225624 45.849377 11.955625
-56.225624 45.950626 11.955625
-56.223751 46.053749 11.949375
-56.225624 46.158749 11.955625
-56.227501 46.259998 11.95625
-56.230625 46.361874 11.94875
-56.234375 46.465626 11.95875
-56.233749 46.568748 11.95
-56.232498 46.670624 11.94
-56.235001 46.774376 11.95
-56.23875 46.875 11.936875
-56.239376 46.975624 11.91
-56.236252 47.072498 11.86
-56.234375 47.175625 11.85375
-56.228127 47.28125 11.894375
-56.224377 47.38625 11.91625
-56.228748 47.490002 11.931875
-56.229374 47.595001 11.9375
-56.224998 47.699375 11.946875
-56.223125 47.803123 11.944375
-56.221874 47.904373 11.93125
-56.221874 48.005627 11.91875
-56.2225 48.106876 11.9125
-56.224998 48.209999 11.894375
-56.223125 48.310001 11.885
-56.214375 48.410625 11.863125
-56.208126 48.51125 11.8475
-56.206875 48.615002 11.844375
-56.206875 48.715626 11.835625
-56.775623 25.883751 16.796249
-56.750626 25.975624 16.609375
-56.726875 26.07 16.4825
-56.695625 26.165001 16.34
-56.671249 26.260626 16.203125
-56.650002 26.358126 16.070625
-56.629375 26.450001 15.94
-56.604374 26.545626 15.826875
-56.584373 26.644375 15.714375
-56.565624 26.740625 15.6
-56.549374 26.838751 15.4925
-56.531876 26.931875 15.376875
-56.514374 27.028749 15.27
-56.495625 27.125 15.154375
-56.490002 27.223125 15.05
-56.478748 27.315001 14.92875
-56.456249 27.41 14.79625
-56.435623 27.50625 14.680625
-56.421249 27.602501 14.591875
-56.410625 27.703125 14.514375
-56.400623 27.800625 14.430625
-56.389374 27.89875 14.36
-56.380001 27.995001 14.260625
-56.3675 28.090626 14.15875
-56.349998 28.188749 14.0625
-56.348125 28.285625 13.979375
-56.34 28.38125 13.87375
-56.326248 28.479376 13.785
-56.314999 28.578125 13.700625
-56.302502 28.672501 13.62625
-56.298126 28.773125 13.580625
-56.282501 28.866875 13.48125
-56.272499 28.965626 13.388125
-56.27375 29.065624 13.339375
-56.263126 29.164375 13.290625
-56.25 29.264999 13.215625
-56.236252 29.364374 13.148125
-56.227501 29.46125 13.110625
-56.220627 29.561251 13.061875
-56.215626 29.663124 13.01625
-56.21125 29.760626 12.95625
-56.209999 29.86125 12.923125
-56.205624 29.964375 12.89625
-56.197498 30.061251 12.84875
-56.186874 30.161875 12.80875
-56.1875 30.26375 12.76375
-56.1875 30.361876 12.735
-56.18 30.465 12.704375
-56.174374 30.565624 12.65875
-56.168751 30.664375 12.605625
-56.160625 30.764376 12.56
-56.154373 30.864374 12.51125
-56.146873 30.96125 12.464375
-56.141251 31.060625 12.421875
-56.136875 31.161875 12.38375
-56.134998 31.264376 12.375
-56.134377 31.366249 12.36625
-56.129375 31.469999 12.3475
-56.129375 31.56875 12.310625
-56.12875 31.67 12.27125
-56.125626 31.77 12.24625
-56.123749 31.870001 12.221875
-56.119373 31.970625 12.190625
-56.118752 32.073124 12.15125
-56.116249 32.171875 12.11625
-56.114376 32.27375 12.09875
-56.118126 32.375 12.08
-56.1175 32.474998 12.064375
-56.111874 32.575001 12.025
-56.10125 32.674999 11.96875
-56.098125 32.775002 11.950625
-56.092499 32.875 11.905625
-56.080002 32.975624 11.84875
-56.077499 33.075001 11.830625
-56.074375 33.175625 11.8
-56.071877 33.276249 11.79125
-56.063751 33.380001 11.775625
-56.063126 33.483749 11.769375
-56.068748 33.584373 11.770625
-56.064999 33.685001 11.74125
-56.060001 33.786251 11.704375
-56.057499 33.885624 11.689375
-56.050625 33.98875 11.67125
-56.050625 34.090626 11.664375
-56.063126 34.194374 11.68
-56.05875 34.294998 11.661875
-56.049999 34.396252 11.615
-56.053123 34.499374 11.61875
-56.055 34.603748 11.625
-56.052502 34.704376 11.615625
-56.043751 34.801876 11.584375
-56.03875 34.901249 11.52875
-56.038124 35.002499 11.516875
-56.03875 35.105625 11.5225
-56.041248 35.209999 11.541875
-56.039375 35.310623 11.52875
-56.038124 35.41375 11.520625
-56.033127 35.514999 11.50125
-56.03125 35.615623 11.495625
-56.028126 35.719376 11.483125
-56.026249 35.820625 11.476875
-56.026249 35.924374 11.476875
-56.0275 36.026875 11.489375
-56.033749 36.130627 11.504375
-56.035625 36.235001 11.513125
-56.038124 36.339375 11.535625
-56.040001 36.443748 11.544375
-56.038124 36.546249 11.550625
-56.03125 36.653126 11.565625
-56.028751 36.754375 11.5625
-56.025002 36.855625 11.540625
-56.03125 36.956875 11.553125
-56.03875 37.063126 11.56875
-56.041248 37.162498 11.559375
-56.0425 37.266251 11.559375
-56.045624 37.368752 11.5625
-56.040627 37.470627 11.55
-56.035625 37.570625 11.53125
-56.044376 37.674999 11.540625
-56.046875 37.778751 11.54375
-56.0425 37.880001 11.52875
-56.040627 37.981251 11.523125
-56.036251 38.084999 11.5125
-56.032501 38.186249 11.52
-56.041248 38.293125 11.538125
-56.041248 38.394375 11.54125
-56.035 38.49625 11.52875
-56.028751 38.599998 11.525
-56.033749 38.703751 11.5225
-56.035 38.805 11.5225
-56.033749 38.908749 11.52
-56.026249 39.009377 11.506875
-56.025623 39.111252 11.50125
-56.026249 39.213749 11.49875
-56.021873 39.314999 11.476875
-56.023125 39.415627 11.464375
-56.028126 39.52 11.47625
-56.029373 39.625 11.48
-56.0275 39.725624 11.47375
-56.022499 39.829376 11.46125
-56.018749 39.931252 11.455
-56.019375 40.035 11.46125
-56.02 40.139999 11.4825
-56.018124 40.244373 11.50375
-56.023125 40.349998 11.523125
-56.028126 40.458126 11.565625
-56.03125 40.560623 11.59375
-56.034374 40.6675 11.6125
-56.035 40.77 11.615625
-56.035 40.873123 11.615625
-56.034374 40.974998 11.615625
-56.03125 41.076248 11.60625
-56.03125 41.18 11.60625
-56.035625 41.284374 11.615
-56.039375 41.384998 11.60625
-56.044376 41.490002 11.621875
-56.044376 41.59375 11.624375
-56.044376 41.696251 11.626875
-56.043751 41.799374 11.6375
-56.03875 41.901249 11.63
-56.037498 42.005001 11.6275
-56.036877 42.108749 11.624375
-56.035625 42.209999 11.621875
-56.037498 42.314999 11.6275
-56.043751 42.418751 11.64
-56.044998 42.520626 11.6425
-56.044998 42.624374 11.6425
-56.047501 42.728748 11.64875
-56.052502 42.830002 11.66125
-56.053749 42.935623 11.67625
-56.05125 43.039375 11.691875
-56.050625 43.144375 11.710625
-56.050625 43.245625 11.71375
-56.05125 43.349998 11.72
-56.051876 43.452499 11.72875
-56.05875 43.560001 11.744375
-56.064999 43.666248 11.7775
-56.068748 43.774376 11.82375
-56.069374 43.879375 11.8325
-56.069374 43.983749 11.835625
-56.069374 44.084999 11.835625
-56.069374 44.188751 11.8325
-56.07 44.290627 11.83875
-56.077499 44.395 11.860625
-56.078751 44.501251 11.88875
-56.075626 44.607498 11.90125
-56.070625 44.7075 11.894375
-56.07 44.811249 11.89125
-56.070625 44.915001 11.8975
-56.073124 45.020626 11.930625
-56.072498 45.125 11.95
-56.072498 45.229374 11.95
-56.075626 45.330624 11.9425
-56.080624 45.435001 11.950625
-56.083752 45.536251 11.943125
-56.081249 45.638126 11.928125
-56.073124 45.73875 11.90625
-56.068748 45.844376 11.915625
-56.066875 45.946251 11.91875
-56.064377 46.048126 11.90625
-56.073124 46.154999 11.934375
-56.075001 46.256874 11.940625
-56.076248 46.360626 11.940625
-56.080002 46.464375 11.95375
-56.084373 46.566875 11.94625
-56.083752 46.670624 11.94375
-56.080624 46.774376 11.953125
-56.080624 46.875626 11.9475
-56.083752 46.977501 11.925
-56.087502 47.075001 11.885
-56.087502 47.176876 11.875625
-56.0825 47.283749 11.919375
-56.076248 47.388748 11.931875
-56.075001 47.490623 11.931875
-56.07375 47.594376 11.92875
-56.068127 47.696251 11.91875
-56.066875 47.799999 11.915625
-56.06625 47.901249 11.913125
-56.064999 48.004375 11.91
-56.064377 48.105625 11.906875
-56.061874 48.208752 11.885625
-56.061249 48.310001 11.8825
-56.060001 48.412498 11.87625
-56.05875 48.51125 11.860625
-56.05875 48.614376 11.854375
-56.059376 48.715 11.83625
-56.060623 48.814999 11.81125
-56.660625 25.795 17.035625
-56.627499 25.885626 16.820625
-56.600624 25.979376 16.650625
-56.578751 26.074375 16.535
-56.549374 26.169374 16.3925
-56.529373 26.264376 16.25
-56.509998 26.360001 16.113125
-56.488125 26.451876 15.984375
-56.458752 26.549376 15.86875
-56.440624 26.64875 15.77375
-56.422501 26.745001 15.6625
-56.409374 26.843124 15.556875
-56.389999 26.935625 15.424375
-56.366249 27.030624 15.303125
-56.343124 27.126249 15.185625
-56.336876 27.224375 15.080625
-56.327499 27.316875 14.969375
-56.3125 27.414375 14.860625
-56.300625 27.51 14.731875
-56.290001 27.605625 14.6375
-56.268124 27.704374 14.5425
-56.251251 27.800625 14.44625
-56.237499 27.89875 14.36625
-56.225624 27.995001 14.27625
-56.212502 28.091249 14.180625
-56.200001 28.190624 14.09
-56.195625 28.28875 14.010625
-56.189999 28.384375 13.91375
-56.178749 28.481251 13.821875
-56.165001 28.58 13.7375
-56.151875 28.674999 13.65125
-56.145 28.774376 13.5925
-56.131248 28.870001 13.515
-56.122501 28.969376 13.42625
-56.121876 29.06875 13.373125
-56.110626 29.16625 13.324375
-56.096874 29.264999 13.24
-56.086876 29.365625 13.181875
-56.080002 29.464375 13.139375
-56.07375 29.565001 13.095
-56.06625 29.665625 13.05875
-56.060001 29.764376 13.013125
-56.056252 29.865625 12.971875
-56.054375 29.968124 12.941875
-56.050625 30.06625 12.901875
-56.046875 30.168125 12.880625
-56.043751 30.269375 12.8425
-56.039375 30.366249 12.7975
-56.03125 30.46875 12.748125
-56.025623 30.56875 12.698125
-56.020626 30.665625 12.634375
-56.014374 30.765625 12.5875
-56.009377 30.865625 12.53875
-56.003124 30.964375 12.495625
-55.993752 31.065001 12.45875
-55.985001 31.165001 12.415625
-55.978127 31.265625 12.394375
-55.982498 31.369375 12.388125
-55.980625 31.471874 12.366875
-55.975624 31.567499 12.305
-55.971249 31.669374 12.258125
-55.970001 31.77 12.246875
-55.970001 31.870001 12.221875
-55.966873 31.971251 12.190625
-55.966251 32.074375 12.169375
-55.964375 32.173752 12.139375
-55.961876 32.274376 12.104375
-55.963749 32.375 12.074375
-55.959999 32.474377 12.0375
-55.951874 32.575001 12.005625
-55.945625 32.674999 11.96625
-55.944374 32.775002 11.954375
-55.938126 32.875626 11.91375
-55.925625 32.978748 11.874375
-55.923752 33.079376 11.865
-55.924374 33.18 11.84
-55.924374 33.279999 11.83125
-55.918751 33.380627 11.7975
-55.916874 33.484375 11.78875
-55.918751 33.585625 11.79125
-55.9175 33.689377 11.785625
-55.911877 33.7925 11.76375
-55.91 33.890625 11.739375
-55.903751 33.990623 11.695
-55.896252 34.090626 11.649375
-55.906876 34.194374 11.668125
-55.909374 34.295624 11.668125
-55.908749 34.39875 11.65
-55.907501 34.500626 11.64375
-55.904999 34.603748 11.634375
-55.89875 34.705002 11.609375
-55.894375 34.804375 11.59125
-55.889999 34.904373 11.554375
-55.887501 35.004375 11.53
-55.889999 35.106251 11.53
-55.891251 35.209999 11.53875
-55.888126 35.310623 11.52625
-55.885624 35.41375 11.52
-55.876251 35.515625 11.495625
-55.875626 35.616249 11.48875
-55.881874 35.719376 11.483125
-55.883751 35.821251 11.483125
-55.8825 35.924999 11.483125
-55.881248 36.028751 11.498125
-55.887501 36.133751 11.523125
-55.888748 36.236252 11.525625
-55.890625 36.34 11.534375
-55.895 36.445 11.55
-55.893124 36.549374 11.56875
-55.88625 36.654373 11.575
-55.884998 36.755627 11.575
-55.883751 36.858749 11.56875
-55.884377 36.959373 11.56875
-55.886875 37.063751 11.571875
-55.893124 37.164375 11.56875
-55.893749 37.267502 11.5625
-55.891251 37.366875 11.5375
-55.889374 37.469376 11.528125
-55.889374 37.570625 11.528125
-55.891876 37.674999 11.52875
-55.897499 37.778751 11.538125
-55.903126 37.880627 11.54125
-55.903126 37.983749 11.54125
-55.895 38.087502 11.535625
-55.883125 38.186874 11.52875
-55.888748 38.293125 11.54375
-55.889999 38.395626 11.546875
-55.887501 38.498123 11.540625
-55.880001 38.599377 11.523125
-55.880001 38.700626 11.51
-55.880001 38.80125 11.5075
-55.879375 38.905624 11.506875
-55.878124 39.009377 11.514375
-55.880001 39.11375 11.52
-55.878124 39.215 11.50125
-55.869999 39.315624 11.470625
-55.877499 39.419376 11.495
-55.878124 39.524376 11.511875
-55.870625 39.627499 11.495
-55.866875 39.72625 11.483125
-55.865623 39.830624 11.48
-55.866249 39.934376 11.483125
-55.87125 40.039375 11.500625
-55.876877 40.143749 11.516875
-55.877499 40.245625 11.52
-55.880627 40.350624 11.53125
-55.884377 40.458752 11.571875
-55.884998 40.560623 11.596875
-55.885624 40.665627 11.603125
-55.884377 40.768749 11.6
-55.884377 40.87125 11.6
-55.884998 40.974998 11.60625
-55.881874 41.078751 11.61875
-55.8825 41.181252 11.624375
-55.888126 41.286877 11.635
-55.889999 41.38625 11.62125
-55.889999 41.489376 11.61875
-55.887501 41.591251 11.60625
-55.88625 41.695 11.60625
-55.883751 41.799374 11.624375
-55.881874 41.900623 11.625
-55.8825 42.004375 11.621875
-55.883751 42.105625 11.60625
-55.88625 42.2075 11.609375
-55.890625 42.314377 11.6275
-55.892502 42.416874 11.63
-55.890625 42.518749 11.624375
-55.892502 42.621876 11.63
-55.892502 42.725624 11.63
-55.894375 42.826874 11.63625
-55.898125 42.933125 11.65875
-55.899376 43.036877 11.673125
-55.899376 43.143124 11.691875
-55.900002 43.245625 11.70125
-55.900623 43.349998 11.7075
-55.89875 43.452499 11.72625
-55.904999 43.560001 11.7475
-55.909374 43.665001 11.76875
-55.910625 43.770626 11.790625
-55.911251 43.874374 11.793125
-55.915627 43.979374 11.80875
-55.919376 44.081249 11.8175
-55.918751 44.185623 11.820625
-55.916874 44.290001 11.839375
-55.923752 44.395 11.864375
-55.924999 44.5 11.88625
-55.923752 44.605625 11.895
-55.920624 44.708752 11.901875
-55.919998 44.813751 11.906875
-55.919998 44.915627 11.906875
-55.920624 45.019375 11.913125
-55.919998 45.12125 11.915625
-55.919998 45.224998 11.915625
-55.921875 45.326874 11.91625
-55.928123 45.43375 11.934375
-55.930626 45.535 11.92875
-55.931252 45.636875 11.919375
-55.929375 45.739376 11.913125
-55.928123 45.845627 11.935
-55.923752 45.94875 11.944375
-55.915627 46.050625 11.9225
-55.924374 46.158127 11.950625
-55.92625 46.259998 11.956875
-55.92625 46.36375 11.96
-55.926876 46.465626 11.975
-55.931252 46.568748 11.9725
-55.931252 46.673126 11.969375
-55.924999 46.774376 11.95625
-55.920624 46.874374 11.931875
-55.921875 46.975624 11.91375
-55.927502 47.075626 11.904375
-55.928749 47.179375 11.904375
-55.928123 47.284374 11.92625
-55.926876 47.388748 11.92875
-55.921875 47.490623 11.91625
-55.919376 47.59375 11.910625
-55.918125 47.695 11.904375
-55.920624 47.799374 11.91
-55.919376 47.900623 11.91
-55.91375 48.004375 11.913125
-55.911877 48.105625 11.9075
-55.906876 48.206249 11.87625
-55.904999 48.306252 11.8675
-55.904999 48.41 11.864375
-55.904999 48.510624 11.86125
-55.904999 48.614376 11.858125
-55.905624 48.715 11.833125
-55.903126 48.813126 11.788125
-55.890625 48.907501 11.73125
-56.532501 25.705626 17.284374
-56.5075 25.795626 17.05125
-56.48 25.88625 16.851875
-56.453125 25.980625 16.696875
-56.432499 26.075001 16.56625
-56.409374 26.17 16.42375
-56.388748 26.266251 16.29875
-56.369999 26.36375 16.17625
-56.348751 26.456249 16.054375
-56.319374 26.55125 15.918125
-56.304375 26.65 15.81375
-56.286877 26.74625 15.699375
-56.271873 26.844376 15.590625
-56.254375 26.939375 15.47375
-56.231251 27.035 15.3525
-56.210625 27.130625 15.238125
-56.201874 27.228125 15.130625
-56.191875 27.321251 15.030625
-56.179375 27.419374 14.945625
-56.168751 27.514999 14.81375
-56.156876 27.610001 14.69125
-56.131874 27.705626 14.5575
-56.111252 27.800625 14.4425
-56.09375 27.896875 14.344375
-56.079376 27.995625 14.281875
-56.064377 28.094376 14.208125
-56.051876 28.19375 14.128125
-56.046249 28.290625 14.053125
-56.041874 28.385626 13.955
-56.030624 28.484375 13.86125
-56.016251 28.583124 13.769375
-56.005001 28.676874 13.675625
-55.998123 28.775 13.601875
-55.985626 28.87125 13.524375
-55.974998 28.969999 13.438125
-55.970001 29.070625 13.388125
-55.959999 29.168751 13.348125
-55.950001 29.266874 13.265625
-55.943127 29.368126 13.215
-55.935001 29.466875 13.17875
-55.92625 29.56875 13.133125
-55.919376 29.669374 13.095
-55.910625 29.766874 13.061875
-55.905624 29.86875 13.019375
-55.904999 29.970625 12.9875
-55.901249 30.069374 12.945
-55.900002 30.171249 12.92
-55.895 30.273125 12.89
-55.889999 30.370625 12.843125
-55.884998 30.469999 12.77875
-55.880001 30.569374 12.723125
-55.874374 30.666876 12.661875
-55.8675 30.768749 12.630625
-55.861252 30.869375 12.585625
-55.853748 30.966875 12.53875
-55.843124 31.06875 12.493125
-55.834999 31.168751 12.446875
-55.824375 31.266874 12.418125
-55.825626 31.369375 12.394375
-55.823124 31.469999 12.354375
-55.821251 31.566875 12.30125
-55.816875 31.669374 12.259375
-55.815624 31.77 12.246875
-55.818748 31.870625 12.228125
-55.818748 31.973125 12.21
-55.818127 32.074375 12.17875
-55.815624 32.171875 12.135625
-55.811249 32.271873 12.09
-55.809376 32.373749 12.06125
-55.805626 32.4725 12.021875
-55.796875 32.574375 11.99125
-55.791248 32.674999 11.960625
-55.790001 32.775002 11.951875
-55.786877 32.875626 11.920625
-55.782501 32.979374 11.905625
-55.78125 33.080624 11.899375
-55.775623 33.18375 11.868125
-55.773125 33.283749 11.853125
-55.765625 33.381874 11.80375
-55.758751 33.484375 11.77625
-55.758751 33.585625 11.77625
-55.763748 33.689999 11.78875
-55.764999 33.794376 11.78875
-55.764374 33.894375 11.766875
-55.758125 33.993752 11.718125
-55.746876 34.091251 11.65875
-55.748749 34.194374 11.653125
-55.756248 34.295624 11.659375
-55.760624 34.400002 11.665625
-55.750626 34.5 11.634375
-55.744999 34.60125 11.609375
-55.747501 34.704376 11.6
-55.748123 34.805 11.600625
-55.740623 34.905624 11.57875
-55.731876 35.005627 11.5425
-55.739376 35.108749 11.54875
-55.7425 35.212502 11.558125
-55.730625 35.310623 11.520625
-55.728748 35.412498 11.514375
-55.73 35.517502 11.516875
-55.731251 35.618752 11.515
-55.733124 35.720627 11.504375
-55.731876 35.823124 11.495625
-55.729374 35.924999 11.483125
-55.729374 36.0275 11.495
-55.733124 36.134377 11.535
-55.735626 36.23875 11.55
-55.735626 36.341251 11.55
-55.737499 36.445 11.55625
-55.740623 36.549999 11.571875
-55.740002 36.654373 11.575
-55.740002 36.755627 11.575
-55.73875 36.858124 11.56875
-55.736252 36.956875 11.55625
-55.736874 37.060001 11.553125
-55.741875 37.161251 11.55
-55.740002 37.264374 11.54125
-55.737499 37.365623 11.53125
-55.737499 37.469376 11.53125
-55.740002 37.570625 11.535
-55.734375 37.674374 11.51
-55.731876 37.776249 11.495
-55.735001 37.87875 11.50125
-55.735626 37.980625 11.504375
-55.734375 38.084999 11.5075
-55.728127 38.185623 11.506875
-55.733749 38.290627 11.525625
-55.735001 38.394375 11.528125
-55.733749 38.495625 11.525625
-55.727501 38.596874 11.5125
-55.72625 38.700001 11.5075
-55.724377 38.800625 11.501875
-55.721249 38.904373 11.48625
-55.7225 39.006874 11.49125
-55.731251 39.113125 11.51125
-55.731251 39.214375 11.495
-55.723751 39.315624 11.4675
-55.731876 39.419998 11.49875
-55.726875 39.524376 11.50125
-55.713749 39.625626 11.470625
-55.711876 39.72625 11.48
-55.715 39.833126 11.49875
-55.716873 39.935623 11.504375
-55.7225 40.040001 11.5175
-55.72625 40.144375 11.5225
-55.727501 40.245625 11.515
-55.734375 40.350624 11.531875
-55.738125 40.458752 11.571875
-55.73875 40.560623 11.596875
-55.736252 40.664375 11.59375
-55.731876 40.766251 11.578125
-55.733124 40.869999 11.58125
-55.738125 40.974377 11.596875
-55.738125 41.078751 11.61875
-55.739376 41.180626 11.625
-55.740002 41.285625 11.626875
-55.740623 41.385624 11.609375
-55.740623 41.489376 11.603125
-55.740002 41.590626 11.6
-55.740002 41.695 11.603125
-55.739376 41.799374 11.621875
-55.739376 41.900623 11.625
-55.736874 42.00375 11.61875
-55.733749 42.105625 11.60625
-55.740623 42.209999 11.624375
-55.751251 42.317501 11.6525
-55.751251 42.418125 11.6375
-55.745625 42.518124 11.6175
-55.752499 42.623123 11.634375
-55.75375 42.727501 11.6375
-55.748749 42.826248 11.6275
-55.743752 42.930626 11.633125
-55.74625 43.035 11.64875
-55.747501 43.140625 11.67625
-55.751877 43.245625 11.71375
-55.7575 43.353748 11.73875
-55.755627 43.458752 11.760625
-55.756248 43.563751 11.766875
-55.756874 43.665627 11.77
-55.756248 43.768749 11.769375
-55.753124 43.868752 11.76
-55.751251 43.974377 11.775
-55.763126 44.080002 11.80625
-55.764374 44.185001 11.818125
-55.762501 44.290001 11.836875
-55.768124 44.394375 11.85875
-55.769375 44.499374 11.880625
-55.769375 44.603748 11.88375
-55.768749 44.706249 11.88875
-55.768124 44.813126 11.901875
-55.768124 44.915001 11.904375
-55.769375 45.018749 11.9075
-55.770626 45.120625 11.91
-55.770626 45.224377 11.91
-55.771252 45.326248 11.913125
-55.775623 45.433125 11.925625
-55.779373 45.535625 11.919375
-55.783127 45.638748 11.92875
-55.785 45.741875 11.938125
-55.785 45.848125 11.95375
-55.781876 45.949375 11.95375
-55.776249 46.05125 11.938125
-55.781876 46.158127 11.95375
-55.783127 46.259998 11.956875
-55.781876 46.36375 11.956875
-55.774376 46.464375 11.956875
-55.768749 46.56625 11.94125
-55.767502 46.669376 11.935625
-55.764374 46.77 11.92375
-55.761875 46.870625 11.895
-55.76125 46.973751 11.88625
-55.763126 47.075626 11.8925
-55.763126 47.179375 11.8925
-55.762501 47.280624 11.891875
-55.768124 47.384377 11.895625
-55.766876 47.487499 11.89
-55.761875 47.589375 11.876875
-55.763748 47.69125 11.873125
-55.774376 47.798126 11.89875
-55.778751 47.900623 11.913125
-55.775002 48.005001 11.925625
-55.772499 48.108124 11.923125
-55.760624 48.208126 11.88625
-55.751877 48.305626 11.85875
-55.750626 48.408749 11.843125
-55.751877 48.509998 11.84
-55.752499 48.61375 11.836875
-55.754375 48.714375 11.815625
-55.751251 48.810623 11.77125
-55.741875 48.903126 11.695
-55.740623 49.005627 11.6825
-56.389374 25.70875 17.325001
-56.36375 25.799376 17.1075
-56.338123 25.890625 16.9175
-56.310001 25.984375 16.759375
-56.283749 26.07625 16.6
-56.263748 26.171249 16.4575
-56.243126 26.27 16.346251
-56.228127 26.36875 16.24625
-56.211876 26.463125 16.135626
-56.186249 26.55625 15.99
-56.172501 26.654375 15.87875
-56.1525 26.75 15.7575
-56.130627 26.845625 15.631875
-56.1175 26.94125 15.5375
-56.0975 27.039375 15.424375
-56.075001 27.135 15.313125
-56.057499 27.230625 15.185
-56.046875 27.325624 15.075
-56.037498 27.42375 14.99375
-56.0275 27.52 14.88
-56.016251 27.614374 14.755625
-55.998123 27.709999 14.625
-55.973125 27.805 14.50875
-55.946251 27.9 14.38375
-55.930626 27.998751 14.316875
-55.916874 28.095625 14.241875
-55.904373 28.195 14.155625
-55.898125 28.293125 14.075
-55.891876 28.386875 13.97
-55.883751 28.485624 13.889375
-55.869999 28.584999 13.809375
-55.856876 28.68 13.719375
-55.850624 28.779375 13.6425
-55.839375 28.874374 13.5525
-55.826874 28.971874 13.475
-55.820625 29.073126 13.42875
-55.811874 29.171249 13.38875
-55.802502 29.269375 13.3075
-55.796249 29.370625 13.253125
-55.790001 29.469376 13.211875
-55.780624 29.570625 13.163125
-55.774376 29.673124 13.133125
-55.763748 29.770624 13.1075
-55.758751 29.87125 13.061875
-55.759377 29.973125 13.013125
-55.756874 30.071875 12.975
-55.755001 30.17375 12.948125
-55.747501 30.275625 12.9175
-55.7425 30.373751 12.870625
-55.740002 30.471251 12.800625
-55.735626 30.570625 12.738125
-55.73 30.669374 12.68625
-55.726875 30.77125 12.671875
-55.71875 30.873125 12.630625
-55.706875 30.969999 12.583125
-55.699375 31.070625 12.535625
-55.692501 31.170626 12.486875
-55.680626 31.269375 12.444375
-55.679375 31.370625 12.415625
-55.676876 31.470625 12.373125
-55.678123 31.569374 12.324375
-55.669998 31.67 12.274375
-55.66375 31.77 12.25
-55.665627 31.870625 12.228125
-55.666248 31.971874 12.206875
-55.6675 32.074375 12.181875
-55.668751 32.174374 12.151875
-55.66375 32.274376 12.108125
-55.658127 32.375 12.08125
-55.657501 32.474377 12.0525
-55.650002 32.575001 12.004375
-55.642502 32.674999 11.95375
-55.641251 32.775002 11.941875
-55.638748 32.876251 11.918125
-55.633751 32.98 11.9025
-55.62875 33.080624 11.89
-55.621876 33.184376 11.868125
-55.619999 33.285 11.859375
-55.616249 33.384377 11.81625
-55.610626 33.485001 11.779375
-55.610001 33.585625 11.773125
-55.611874 33.689377 11.773125
-55.6175 33.794376 11.78875
-55.618752 33.895 11.785625
-55.611252 33.994373 11.739375
-55.600624 34.091251 11.674375
-55.60125 34.194374 11.659375
-55.608124 34.296249 11.671875
-55.612499 34.401875 11.684375
-55.606876 34.500626 11.646875
-55.598125 34.60125 11.6125
-55.595627 34.704376 11.603125
-55.599377 34.805626 11.615625
-55.596874 34.907501 11.605
-55.583752 35.006248 11.560625
-55.578751 35.106876 11.545625
-55.580624 35.209999 11.54875
-55.578751 35.310623 11.53
-55.577499 35.41375 11.52375
-55.573124 35.515625 11.508125
-55.571877 35.616249 11.504375
-55.571251 35.719376 11.49875
-55.568748 35.821251 11.48625
-55.568127 35.924999 11.483125
-55.570625 36.028751 11.498125
-55.573124 36.134377 11.529375
-55.583752 36.239376 11.559375
-55.585625 36.343124 11.565625
-55.586876 36.445 11.565625
-55.593124 36.549374 11.571875
-55.594376 36.653751 11.571875
-55.59375 36.754375 11.56875
-55.590626 36.855625 11.553125
-55.587502 36.955002 11.544375
-55.58625 37.05875 11.54125
-55.581249 37.159374 11.52
-55.575626 37.26125 11.503125
-55.58625 37.365002 11.5325
-55.588123 37.469376 11.540625
-55.580624 37.57 11.523125
-55.571251 37.673752 11.498125
-55.568127 37.775002 11.48
-55.568127 37.875626 11.4675
-55.569374 37.977501 11.4675
-55.575001 38.083752 11.483125
-55.575626 38.185623 11.491875
-55.581249 38.290001 11.519375
-55.581875 38.394375 11.525
-55.580624 38.495625 11.5225
-55.579376 38.598751 11.52
-55.578125 38.703125 11.52
-55.570625 38.80125 11.504375
-55.56625 38.904373 11.48625
-55.566875 39.006248 11.483125
-55.575626 39.110626 11.488125
-55.578125 39.211876 11.473125
-55.578125 39.315624 11.47
-55.587502 39.419376 11.495625
-55.584373 39.52375 11.4925
-55.568127 39.625 11.4675
-55.566875 39.726875 11.483125
-55.57 39.833752 11.501875
-55.570625 39.935623 11.505
-55.573124 40.040001 11.5125
-55.578125 40.144375 11.5225
-55.580624 40.245625 11.525625
-55.586876 40.350624 11.546875
-55.58625 40.458126 11.571875
-55.584373 40.560623 11.590625
-55.580002 40.664375 11.578125
-55.581249 40.765625 11.5625
-55.588123 40.869373 11.571875
-55.59 40.971249 11.58125
-55.588749 41.075626 11.603125
-55.591873 41.180626 11.624375
-55.591251 41.286877 11.635
-55.59375 41.38625 11.618125
-55.595001 41.489376 11.60625
-55.595001 41.591251 11.603125
-55.595001 41.695625 11.60875
-55.596249 41.799999 11.6275
-55.595001 41.900623 11.624375
-55.588749 42.001877 11.609375
-55.586876 42.105 11.603125
-55.594376 42.209373 11.62125
-55.600624 42.313751 11.63125
-55.603127 42.415627 11.620625
-55.605 42.518749 11.621875
-55.611252 42.620625 11.62125
-55.611252 42.724377 11.62125
-55.604374 42.825626 11.621875
-55.598751 42.930626 11.633125
-55.603748 43.035625 11.651875
-55.605625 43.140625 11.67625
-55.609375 43.245625 11.716875
-55.61375 43.353748 11.741875
-55.613125 43.459373 11.76375
-55.613125 43.563751 11.766875
-55.614376 43.665627 11.77
-55.614376 43.769375 11.77
-55.611252 43.869373 11.76375
-55.600624 43.971874 11.756875
-55.611252 44.079376 11.790625
-55.611874 44.185001 11.811875
-55.610626 44.289375 11.818125
-55.611874 44.391251 11.824375
-55.610626 44.495625 11.84
-55.610626 44.599998 11.84625
-55.610001 44.701874 11.84625
-55.608749 44.80875 11.864375
-55.609375 44.911251 11.870625
-55.615002 45.015625 11.88875
-55.62125 45.119373 11.901875
-55.622501 45.223751 11.904375
-55.623749 45.325626 11.9075
-55.624374 45.430626 11.910625
-55.625626 45.534374 11.910625
-55.630001 45.639374 11.929375
-55.637501 45.743752 11.950625
-55.637501 45.848125 11.95375
-55.631874 45.946877 11.938125
-55.629375 46.049999 11.931875
-55.630001 46.154999 11.938125
-55.629375 46.256248 11.935
-55.628124 46.360001 11.935
-55.62125 46.46125 11.931875
-55.616249 46.564377 11.91375
-55.614376 46.665627 11.895
-55.608749 46.765625 11.87375
-55.608749 46.865623 11.84625
-55.611252 46.970627 11.8525
-55.61375 47.074375 11.8775
-55.612499 47.178123 11.8775
-55.604374 47.276249 11.843125
-55.606876 47.375626 11.80625
-55.608124 47.47625 11.78375
-55.607498 47.580002 11.784375
-55.610001 47.685623 11.81625
-55.6175 47.794376 11.86375
-55.62875 47.899376 11.89875
-55.631874 48.00375 11.9075
-55.631874 48.105625 11.9075
-55.618126 48.205624 11.873125
-55.604374 48.302502 11.83375
-55.60125 48.404999 11.815
-55.606251 48.505627 11.8125
-55.610001 48.610626 11.815
-55.610626 48.713749 11.811875
-55.608749 48.813126 11.794375
-55.602501 48.907501 11.731875
-56.243126 25.709375 17.3375
-56.216873 25.80125 17.145
-56.191875 25.895 16.969999
-56.168751 25.989374 16.815001
-56.141251 26.080626 16.650625
-56.120625 26.175625 16.519375
-56.099377 26.27375 16.395624
-56.083126 26.370625 16.296249
-56.068748 26.465626 16.194374
-56.046875 26.560625 16.055
-56.033749 26.659374 15.936875
-56.016251 26.754999 15.8175
-55.994373 26.85 15.695625
-55.98 26.945625 15.61
-55.9575 27.044374 15.495
-55.936249 27.139999 15.376875
-55.9175 27.235001 15.254375
-55.903751 27.33 15.1425
-55.887501 27.42625 15.02125
-55.872501 27.523125 14.9075
-55.862499 27.616875 14.795625
-55.855 27.714375 14.685625
-55.828125 27.80875 14.560625
-55.796249 27.901251 14.411875
-55.784374 27.999374 14.32
-55.772499 28.095625 14.235625
-55.754375 28.195 14.15875
-55.746876 28.293751 14.078125
-55.744373 28.389376 13.9825
-55.73875 28.48875 13.908125
-55.724998 28.5875 13.83125
-55.713123 28.682501 13.75
-55.708126 28.782499 13.68
-55.695625 28.876249 13.58
-55.682499 28.974375 13.50625
-55.678749 29.075001 13.465625
-55.673126 29.17375 13.419375
-55.663124 29.271875 13.335625
-55.65625 29.373125 13.28625
-55.64875 29.471251 13.25
-55.636875 29.571251 13.190625
-55.633751 29.674376 13.16
-55.62875 29.774376 13.133125
-55.623749 29.874374 13.08625
-55.620625 29.975 13.0275
-55.619373 30.074375 13.01
-55.6175 30.17625 12.9875
-55.610001 30.278126 12.941875
-55.604374 30.375626 12.89
-55.599377 30.474375 12.824375
-55.593124 30.57375 12.77
-55.583752 30.671875 12.716875
-55.581249 30.774376 12.701875
-55.574375 30.875 12.659375
-55.5625 30.971874 12.609375
-55.555 31.07375 12.56125
-55.545624 31.17375 12.51125
-55.535625 31.271875 12.47125
-55.535 31.373751 12.44125
-55.536251 31.474375 12.4125
-55.536877 31.571251 12.36125
-55.526249 31.670626 12.289375
-55.52 31.77125 12.25625
-55.52 31.873751 12.24375
-55.52 31.973749 12.21875
-55.522499 32.075001 12.195625
-55.523125 32.174374 12.166875
-55.516876 32.275002 12.13
-55.510624 32.375 12.101875
-55.510624 32.474998 12.071875
-55.505001 32.575001 12.015625
-55.5 32.675625 11.966875
-55.498749 32.776249 11.958125
-55.494999 32.879375 11.941875
-55.491249 32.983124 11.9275
-55.479374 33.081249 11.89625
-55.471874 33.184376 11.87125
-55.471874 33.285 11.865625
-55.471874 33.384998 11.825
-55.466251 33.485001 11.798125
-55.464375 33.585625 11.78875
-55.46125 33.6875 11.760625
-55.466251 33.793125 11.77
-55.471249 33.894375 11.779375
-55.466251 33.994373 11.73625
-55.455002 34.091873 11.676875
-55.455624 34.194374 11.671875
-55.4575 34.296249 11.678125
-55.458752 34.400623 11.678125
-55.459373 34.500626 11.65625
-55.456249 34.603748 11.6375
-55.446251 34.705002 11.609375
-55.44875 34.805 11.600625
-55.453751 34.906876 11.59375
-55.452499 35.009377 11.58875
-55.443748 35.110626 11.579375
-55.431873 35.210625 11.548125
-55.427502 35.311249 11.533125
-55.42625 35.414375 11.52375
-55.423752 35.515625 11.495625
-55.423752 35.616249 11.491875
-55.423752 35.720001 11.491875
-55.423126 35.821877 11.48875
-55.423126 35.924999 11.48875
-55.423126 36.0275 11.495
-55.423752 36.131248 11.5125
-55.4375 36.236252 11.531875
-55.439999 36.34 11.53125
-55.440624 36.44125 11.534375
-55.444374 36.545624 11.546875
-55.445 36.650002 11.55
-55.444374 36.751251 11.546875
-55.438126 36.853127 11.52625
-55.428749 36.951874 11.51
-55.427502 37.055 11.504375
-55.43 37.156876 11.491875
-55.431252 37.260624 11.48875
-55.439377 37.365002 11.5125
-55.436874 37.46875 11.5175
-55.424374 37.566875 11.488125
-55.416874 37.670624 11.470625
-55.419998 37.774376 11.476875
-55.421249 37.876251 11.48
-55.421875 37.979374 11.485625
-55.424374 38.084373 11.49875
-55.426876 38.185623 11.504375
-55.436249 38.290001 11.5225
-55.4375 38.394375 11.525625
-55.432499 38.495625 11.515625
-55.430626 38.5975 11.5125
-55.427502 38.702499 11.5175
-55.418751 38.80125 11.5075
-55.416248 38.904999 11.501875
-55.418125 39.009377 11.504375
-55.428123 39.113125 11.514375
-55.436249 39.215 11.51625
-55.4375 39.318127 11.510625
-55.438126 39.416874 11.4825
-55.432499 39.52 11.464375
-55.422501 39.625 11.47375
-55.42625 39.729374 11.49875
-55.428123 39.834373 11.505
-55.428123 39.935623 11.5075
-55.428123 40.040001 11.52
-55.43 40.144375 11.528125
-55.430626 40.24625 11.53125
-55.435623 40.350624 11.55
-55.436249 40.456249 11.5625
-55.436249 40.560001 11.578125
-55.435001 40.665001 11.58125
-55.435623 40.766251 11.575
-55.443748 40.869373 11.578125
-55.445 40.971249 11.58125
-55.443127 41.075626 11.603125
-55.44125 41.18 11.61875
-55.44125 41.285625 11.626875
-55.445 41.38625 11.615
-55.448124 41.490623 11.62125
-55.447498 41.594376 11.624375
-55.44875 41.69875 11.6375
-55.455002 41.803123 11.655
-55.4575 41.904373 11.64625
-55.450626 42.005001 11.626875
-55.445625 42.105625 11.60625
-55.441875 42.205002 11.590625
-55.436874 42.306873 11.568125
-55.443127 42.411251 11.571875
-55.455624 42.518124 11.609375
-55.456249 42.6175 11.590625
-55.454376 42.720627 11.584375
-55.453751 42.825001 11.605625
-55.456249 42.933125 11.653125
-55.461876 43.03875 11.679375
-55.463749 43.143124 11.691875
-55.463749 43.245625 11.71375
-55.463749 43.350624 11.723125
-55.46125 43.455002 11.741875
-55.461876 43.560001 11.748125
-55.467499 43.664375 11.76375
-55.46875 43.768749 11.766875
-55.466251 43.869373 11.76375
-55.454376 43.971249 11.750625
-55.460625 44.078751 11.785
-55.463749 44.184376 11.80625
-55.464375 44.28875 11.811875
-55.463123 44.390625 11.811875
-55.458126 44.494373 11.818125
-55.456249 44.599377 11.83375
-55.4575 44.700626 11.824375
-55.461876 44.805626 11.836875
-55.462502 44.909374 11.843125
-55.462502 45.013748 11.861875
-55.462502 45.116249 11.870625
-55.463749 45.220627 11.87375
-55.470001 45.325001 11.889375
-55.471249 45.429375 11.8925
-55.471249 45.53125 11.8925
-55.473751 45.635624 11.90125
-55.483749 45.740623 11.929375
-55.484375 45.845001 11.935
-55.48 45.945625 11.91625
-55.478748 46.049999 11.91625
-55.475624 46.154373 11.925625
-55.471249 46.255001 11.91375
-55.470627 46.358749 11.910625
-55.470627 46.460625 11.913125
-55.470001 46.564377 11.9075
-55.46875 46.665001 11.889375
-55.460625 46.764374 11.861875
-55.459373 46.863125 11.830625
-55.463749 46.96875 11.836875
-55.465626 47.071251 11.84625
-55.463123 47.174374 11.84
-55.456875 47.274376 11.815625
-55.459999 47.369999 11.76875
-55.464375 47.466873 11.72625
-55.464375 47.571251 11.72625
-55.459999 47.679375 11.765625
-55.4575 47.789375 11.81625
-55.463749 47.895 11.858125
-55.473125 48 11.873125
-55.485001 48.104374 11.89875
-55.483124 48.2075 11.89
-55.46875 48.305 11.851875
-55.455002 48.404373 11.803125
-55.455624 48.503124 11.783125
-55.465626 48.607498 11.785
-55.468124 48.710625 11.7875
-55.469376 48.814377 11.790625
-55.467499 48.91375 11.765625
-56.096874 25.710625 17.37125
-56.073124 25.805 17.206875
-56.049999 25.9 17.039375
-56.028751 25.994375 16.88625
-56.001251 26.085625 16.721874
-55.979374 26.18 16.5875
-55.958126 26.276251 16.439375
-55.943748 26.373751 16.33
-55.928749 26.469376 16.241249
-55.908127 26.565624 16.116249
-55.895626 26.664375 16.009375
-55.881248 26.76 15.8975
-55.860001 26.855 15.77625
-55.846249 26.950624 15.684375
-55.824375 27.049376 15.56875
-55.803749 27.145 15.44625
-55.783749 27.24 15.325
-55.766251 27.334999 15.204375
-55.744999 27.429375 15.06
-55.727501 27.525625 14.944375
-55.713749 27.620625 14.836875
-55.706875 27.718124 14.73125
-55.683125 27.810625 14.595625
-55.654373 27.901875 14.436875
-55.641876 27.999374 14.315625
-55.62875 28.095625 14.233125
-55.610626 28.194374 14.168125
-55.602501 28.29125 14.06875
-55.600624 28.386875 13.97
-55.59375 28.485624 13.8925
-55.5825 28.58625 13.824375
-55.574375 28.684376 13.76625
-55.569374 28.783751 13.694375
-55.556252 28.876875 13.599375
-55.5425 28.975624 13.5275
-55.536251 29.075624 13.48125
-55.529373 29.174999 13.44125
-55.519375 29.274376 13.36375
-55.517502 29.375626 13.33
-55.508751 29.475 13.29625
-55.493752 29.575001 13.224375
-55.491875 29.675625 13.188125
-55.490002 29.775 13.1575
-55.486252 29.875626 13.11375
-55.481251 29.975624 13.0525
-55.479374 30.075624 13.03375
-55.47625 30.178749 13.006875
-55.470627 30.279375 12.950625
-55.465 30.375626 12.895625
-55.456249 30.475 12.83375
-55.450626 30.575001 12.794375
-55.445625 30.674999 12.756875
-55.443748 30.778749 12.745
-55.435623 30.87875 12.699375
-55.425625 30.975 12.64
-55.415627 31.075001 12.5825
-55.40625 31.174999 12.526875
-55.401875 31.274376 12.505625
-55.397499 31.375626 12.468125
-55.398125 31.478125 12.438125
-55.393749 31.574375 12.385
-55.3825 31.674376 12.318125
-55.376251 31.774376 12.2775
-55.375626 31.874374 12.25
-55.372501 31.971874 12.206875
-55.372501 32.07375 12.175625
-55.375 32.171875 12.1425
-55.372501 32.274376 12.12375
-55.3675 32.375 12.101875
-55.368126 32.474998 12.075
-55.362499 32.576248 12.034375
-55.356876 32.678749 11.994375
-55.353748 32.779373 11.981875
-55.348125 32.880627 11.958125
-55.348125 32.983749 11.939375
-55.338749 33.081249 11.911875
-55.331249 33.184376 11.893125
-55.329376 33.285 11.893125
-55.325626 33.384998 11.844375
-55.320625 33.485626 11.819375
-55.318748 33.588749 11.810625
-55.313751 33.689377 11.773125
-55.314999 33.790627 11.75125
-55.316875 33.891251 11.745
-55.316875 33.993752 11.72375
-55.315624 34.094376 11.70875
-55.319374 34.195625 11.699375
-55.318748 34.298752 11.69375
-55.316875 34.4025 11.6875
-55.3125 34.501251 11.671875
-55.3125 34.604374 11.653125
-55.305 34.705002 11.625
-55.298752 34.805626 11.60625
-55.305 34.909374 11.619375
-55.314999 35.013748 11.650625
-55.313751 35.116875 11.6475
-55.301876 35.215 11.598125
-55.291248 35.314377 11.5575
-55.286877 35.415627 11.53625
-55.2925 35.519375 11.5325
-55.296249 35.620625 11.541875
-55.296875 35.724998 11.544375
-55.296875 35.828125 11.54125
-55.296875 35.93 11.54125
-55.296875 36.033127 11.54125
-55.296249 36.134998 11.544375
-55.299374 36.238125 11.540625
-55.295624 36.339375 11.525625
-55.294998 36.440624 11.5225
-55.295624 36.544376 11.525625
-55.295624 36.64875 11.525625
-55.294376 36.749374 11.523125
-55.286251 36.850624 11.50375
-55.2775 36.950001 11.483125
-55.276875 37.055 11.48625
-55.283749 37.159374 11.50125
-55.290001 37.263126 11.514375
-55.291248 37.365623 11.5175
-55.286251 37.46875 11.506875
-55.283749 37.566875 11.48625
-55.282501 37.670624 11.48
-55.283749 37.775002 11.48625
-55.283749 37.87875 11.50375
-55.282501 37.980625 11.514375
-55.278126 38.084373 11.51
-55.2775 38.186249 11.513125
-55.286251 38.290627 11.531875
-55.290001 38.395626 11.546875
-55.28875 38.498749 11.54125
-55.285 38.599377 11.52625
-55.2775 38.700626 11.51
-55.274376 38.800625 11.505
-55.275623 38.905624 11.5075
-55.275623 39.009377 11.5075
-55.278751 39.111874 11.5125
-55.285 39.215 11.5225
-55.285 39.319374 11.519375
-55.281876 39.416248 11.4725
-55.275623 39.518124 11.44875
-55.271873 39.624374 11.464375
-55.275623 39.73 11.49875
-55.276249 39.834373 11.505
-55.276249 39.935623 11.5075
-55.2775 40.040627 11.52875
-55.28125 40.145626 11.546875
-55.283127 40.249374 11.553125
-55.290001 40.354374 11.575
-55.293751 40.458752 11.590625
-55.294376 40.561249 11.6
-55.293125 40.6675 11.609375
-55.290001 40.769375 11.6
-55.298126 40.870625 11.596875
-55.298126 40.973751 11.596875
-55.294998 41.078125 11.609375
