ply
format ascii 1.0
comment PCL generated
element vertex 1651
property float x
property float y
property float z
element camera 0
property float view_px
property float view_py
property float view_pz
property float x_axisx
property float x_axisy
property float x_axisz
property float y_axisx
property float y_axisy
property float y_axisz
property float z_axisx
property float z_axisy
property float z_axisz
property float focal
property float scalex
property float scaley
property float centerx
property float centery
property int viewportx
property int viewporty
property float k1
property float k2
end_header
35.358749 12.62 41.078751
35.354374 12.729375 41.034374
35.35125 12.839375 41.000626
35.349998 12.945625 40.927502
35.3475 13.055 40.872501
35.35125 13.165 40.846249
35.356876 13.275 40.8325
35.358749 13.384375 40.829376
35.358124 13.49375 40.822498
35.353748 13.6 40.774376
35.346874 13.70625 40.703751
35.34 13.815 40.641876
35.333752 13.92375 40.594376
35.329376 14.030625 40.558125
35.330002 14.139375 40.518749
35.3325 14.24875 40.456249
35.34 14.35625 40.381248
35.345627 14.46375 40.309376
35.35125 14.57 40.216251
35.345627 14.675625 40.135624
35.342499 14.78 40.056873
35.334999 14.885 39.945
35.328125 14.990625 39.838123
35.31625 15.099375 39.762501
35.305 15.205625 39.686249
35.291248 15.314375 39.611874
35.279373 15.42125 39.560623
35.279373 15.529375 39.524376
35.275623 15.635 39.484375
35.268749 15.74125 39.451248
35.269375 15.850625 39.419376
35.264374 15.96 39.393749
35.267502 16.06875 39.366875
35.261875 16.17625 39.342499
35.260624 16.285625 39.3325
35.263748 16.394375 39.3125
35.264374 16.500626 39.305626
35.264374 16.610001 39.28125
35.266251 16.719999 39.255001
35.260624 16.829374 39.232498
35.255001 16.936251 39.201248
35.256248 17.045 39.177502
35.254375 17.155001 39.1675
35.248749 17.26375 39.142502
35.244373 17.370625 39.122501
35.247501 17.47625 39.091251
35.249374 17.584999 39.064999
35.244373 17.695 39.0425
35.238125 17.804375 39.010624
35.239376 17.910625 38.994373
35.240002 18.02 38.984375
35.240002 18.129999 38.958752
35.240623 18.239374 38.951874
35.243126 18.345625 38.923126
35.2425 18.455 38.8825
35.2425 18.564375 38.872501
35.24625 18.67 38.852501
35.253124 18.776251 38.821251
35.249374 18.885 38.768749
35.243752 18.994375 38.721249
35.237499 19.10125 38.692501
35.22625 19.209999 38.673126
35.221874 19.320625 38.673126
35.220001 19.43 38.678749
35.218124 19.53875 38.668751
35.208126 19.645624 38.630627
35.201248 19.754375 38.583126
35.195625 19.860001 38.531876
35.1875 19.965626 38.495625
35.19125 20.07375 38.463749
35.188751 20.18 38.409374
35.18375 20.285 38.356876
35.171249 20.390625 38.280624
35.160625 20.499374 38.22625
35.161877 20.605 38.170624
35.161877 20.710625 38.0975
35.155624 20.81875 38.05125
35.1525 20.925625 38.006874
35.145626 21.033751 37.945625
35.140625 21.13875 37.865002
35.134998 21.240625 37.791874
35.131248 21.345625 37.714375
35.126877 21.454374 37.653126
35.12125 21.559999 37.557499
35.116249 21.664375 37.501877
35.116249 21.77 37.460625
35.108124 21.876249 37.400002
35.105 21.984375 37.348751
35.103748 22.090626 37.328751
35.095627 22.199375 37.298752
35.087502 22.305626 37.236252
35.086876 22.413124 37.216251
35.09 22.516874 37.166874
35.095001 22.623751 37.110001
35.08625 22.729376 37.035625
35.083752 22.835625 36.978127
35.085625 22.940001 36.926876
35.076248 23.046249 36.856251
35.070625 23.153126 36.802502
35.064999 23.255625 36.758125
35.063751 23.36125 36.682499
35.063751 23.469376 36.611874
35.061249 23.577499 36.584999
35.051876 23.68 36.521873
35.041874 23.785625 36.461876
35.035625 23.894375 36.460625
35.029373 24 36.440624
35.021252 24.108126 36.40625
35.017502 24.214375 36.355
35.019375 24.32 36.3125
35.023125 24.424999 36.2775
35.021252 24.530624 36.23
35.015625 24.63875 36.196877
35.018124 24.741249 36.146252
35.013126 24.849375 36.095001
35.003124 24.955626 36.044376
35.00375 25.063749 36.011875
35.000626 25.16625 35.967499
35 25.274376 35.953751
34.997501 25.381874 35.91
34.991875 25.489374 35.880627
34.994373 25.595625 35.855625
34.994373 25.704374 35.830002
34.9925 25.8125 35.813126
34.986874 25.91625 35.760624
34.985001 26.02125 35.724377
34.991249 26.129375 35.702499
34.9925 26.23875 35.688751
33.696251 42.220627 18.73
33.695625 42.321251 18.690001
33.695 42.424374 18.6775
33.690624 42.525623 18.643126
33.68375 42.626877 18.618126
33.678749 42.733124 18.62125
33.674999 42.834373 18.608749
33.674374 42.935001 18.596251
33.670624 43.036251 18.561874
33.671249 43.139999 18.549999
33.674374 43.243752 18.536875
33.674374 43.345627 18.528126
33.668125 43.449375 18.512501
33.6675 43.553749 18.50625
33.668751 43.65625 18.490625
33.668125 43.759998 18.484375
33.661251 43.861252 18.459375
33.656876 43.965 18.440624
33.65625 44.07 18.4375
33.65625 44.173752 18.434376
33.65625 44.276249 18.434376
33.654999 44.380001 18.428125
33.655624 44.481251 18.4125
33.655624 44.585625 18.409374
33.658127 44.690624 18.415625
33.663124 44.794998 18.424999
33.661877 44.89875 18.40625
33.6525 45.000626 18.384375
33.650623 45.105 18.38125
33.651249 45.211876 18.393749
33.65625 45.319374 18.4125
33.661251 45.42625 18.4375
33.66 45.533749 18.456249
33.659374 45.638748 18.459375
33.653751 45.740002 18.440624
33.646873 45.845001 18.4375
33.647499 45.950626 18.446875
33.654373 46.05875 18.478125
33.654999 46.164375 18.481251
35.987499 -6.7706251 46.414375
35.9575 -6.6593752 46.220627
35.923126 -6.5450001 45.966873
35.883125 -6.4299998 45.630627
35.861252 -6.3156252 45.3475
35.846249 -6.2043748 45.0975
35.831249 -6.0906248 44.876251
35.818748 -5.9793749 44.677502
35.805 -5.8656249 44.506248
35.793751 -5.7550001 44.343124
35.7775 -5.6443748 44.196877
35.771252 -5.53125 44.060623
35.765625 -5.4200001 43.928749
35.759377 -5.3093748 43.794376
35.751877 -5.1956248 43.674999
35.744373 -5.0843749 43.568127
35.738125 -4.9712501 43.46875
35.725624 -4.8600001 43.344376
35.723125 -4.75 43.255001
35.71875 -4.6399999 43.164375
35.711876 -4.5300002 43.050625
35.701874 -4.4200001 42.945
35.689999 -4.3093748 42.856251
35.678749 -4.1999998 42.735626
35.670624 -4.0887499 42.621876
35.666248 -3.975625 42.519375
35.65625 -3.865 42.381874
35.64875 -3.754375 42.264999
35.633751 -3.640625 42.146873
35.62875 -3.53 42.074375
35.626251 -3.4200001 41.994373
35.6175 -3.3099999 41.894375
35.615623 -3.2 41.802502
35.608124 -3.090625 41.719376
35.601875 -2.984375 41.66
35.5975 -2.875 41.564377
35.592499 -2.764375 41.47625
35.5825 -2.650625 41.385624
35.577499 -2.54 41.302502
35.567501 -2.4300001 41.216873
35.553123 -2.3199999 41.08625
35.548126 -2.21 40.949375
35.547501 -2.0999999 40.84
35.536877 -1.99 40.719376
35.522499 -1.88 40.584373
35.508125 -1.770625 40.455002
35.5 -1.6643749 40.345627
35.49625 -1.5549999 40.2575
35.48875 -1.4450001 40.154999
35.481876 -1.335 40.058125
35.474377 -1.225 39.989376
35.463749 -1.115 39.912498
35.453125 -1.005 39.857498
35.455002 -0.89499998 39.820625
35.455002 -0.78500003 39.758125
35.453751 -0.67500001 39.740002
35.454376 -0.565 39.733124
35.454376 -0.455625 39.682499
35.442501 -0.34937501 39.644375
35.44125 -0.23999999 39.624374
35.439999 -0.13 39.58625
35.443127 -0.02 39.557499
35.443748 0.090000004 39.546875
35.443748 0.2 39.546875
35.443748 0.31 39.546875
35.443127 0.41999999 39.543751
35.443127 0.52999997 39.540627
35.443127 0.63937497 39.521252
35.445 0.74562502 39.528751
35.44875 0.85500002 39.572498
35.449375 0.96499997 39.591873
35.449375 1.075 39.601875
35.449375 1.1849999 39.605
35.449375 1.295 39.605
35.448124 1.405 39.608749
35.443748 1.514375 39.630627
35.44875 1.620625 39.656876
35.4575 1.73 39.681873
35.459373 1.84 39.691875
35.463749 1.95 39.740002
35.468124 2.0599999 39.785
35.470627 2.1700001 39.801876
35.474998 2.2806251 39.856876
35.478127 2.3931251 39.953751
35.481251 2.5006249 40.037498
35.486252 2.6099999 40.110001
35.491249 2.7206249 40.205002
35.500626 2.8343749 40.338749
35.509377 2.9449999 40.473751
35.5075 3.0550001 40.568127
35.506874 3.165 40.645626
35.508751 3.275625 40.697498
35.511875 3.3887501 40.77375
35.518749 3.495625 40.803749
35.519375 3.605 40.810623
35.516251 3.7149999 40.8325
35.516251 3.825 40.843124
35.52375 3.9349999 40.858749
35.533749 4.0456252 40.876251
35.543125 4.1593752 40.894375
35.544998 4.2693748 40.891251
35.543751 4.3756251 40.865623
35.536877 4.4850001 40.843124
35.535625 4.5949998 40.83625
35.536877 4.7049999 40.821251
35.543125 4.8150001 40.83625
35.543125 4.9250002 40.839375
35.543125 5.0349998 40.839375
35.5425 5.145 40.842499
35.540627 5.2550001 40.869373
35.543125 5.3649998 40.920624
35.5425 5.4749999 40.949375
35.540001 5.5856252 40.959999
35.533749 5.6993752 41.001251
35.529999 5.8099999 41.048752
35.525002 5.9193749 41.081875
35.525623 6.0256252 41.088749
35.534374 6.1350002 41.107498
35.541248 6.2449999 41.12125
35.541874 6.3562498 41.144375
35.546875 6.46875 41.181252
35.554375 6.5799999 41.202499
35.563751 6.6900001 41.231251
35.571877 6.8000002 41.283127
35.583752 6.9099998 41.331249
35.586876 7.02 41.348125
35.598751 7.131875 41.4025
35.610626 7.2443752 41.466873
35.612499 7.355 41.486874
35.614376 7.4650002 41.550625
35.616875 7.5749998 41.601875
35.625 7.6862502 41.637501
35.633751 7.7987499 41.668125
35.644375 7.9099998 41.730625
35.645626 8.0200005 41.758125
35.64875 8.1300001 41.793125
35.650002 8.2399998 41.816875
35.653751 8.3512497 41.865002
35.653751 8.4637499 41.928749
35.663124 8.5743752 41.974377
35.67625 8.6850004 42.03875
35.688751 8.7956247 42.09
35.703125 8.9093752 42.155624
35.7075 9.0206251 42.193127
35.702499 9.1300001 42.188126
35.700001 9.2399998 42.188126
35.696877 9.3500004 42.165627
35.694374 9.46 42.14875
35.690624 9.5699997 42.111874
35.683125 9.67875 42.0425
35.671875 9.7849998 41.967499
35.656876 9.890625 41.87125
35.645 10 41.825626
35.643749 10.11 41.811874
35.638126 10.22 41.763748
35.626877 10.329375 41.711876
35.621876 10.44 41.670624
35.619373 10.55 41.656876
35.616249 10.66 41.641251
35.613125 10.77 41.630627
35.606876 10.879375 41.609375
35.602501 10.98875 41.595001
35.590626 11.095 41.550625
35.583126 11.20375 41.520626
35.576248 11.310625 41.48875
35.57 11.42 41.444374
35.564999 11.53 41.395626
35.55875 11.64 41.361252
35.549999 11.749375 41.326874
35.541248 11.86 41.267502
35.53875 11.969375 41.246876
35.537498 12.075625 41.202499
35.538124 12.185 41.168751
35.53125 12.294375 41.141251
35.525623 12.400625 41.110626
35.525623 12.51 41.0825
35.520626 12.61875 41.048752
35.516876 12.726875 41.01125
35.514999 12.83875 40.990623
35.511875 12.945625 40.920624
35.510624 13.055 40.868752
35.509377 13.165 40.848125
35.508125 13.27375 40.810623
35.509377 13.38125 40.784374
35.509377 13.490625 40.774376
35.505627 13.59875 40.7225
35.50375 13.705 40.645626
35.499374 13.81375 40.594376
35.491875 13.92125 40.554375
35.484375 14.029375 40.506874
35.476875 14.13625 40.443127
35.473751 14.245625 40.381248
35.478748 14.35375 40.326248
35.481251 14.46125 40.284374
35.490002 14.57 40.216251
35.4925 14.678125 40.16375
35.494373 14.780625 40.092499
35.493126 14.885625 39.982498
35.48875 14.99125 39.854374
35.482498 15.099375 39.747501
35.471249 15.205625 39.669376
35.455002 15.314375 39.605
35.442501 15.420625 39.553749
35.442501 15.529375 39.525002
35.436249 15.635 39.4925
35.428749 15.740625 39.44125
35.42625 15.85 39.396873
35.421249 15.959375 39.3675
35.421249 16.066875 39.343124
35.416874 16.174999 39.31625
35.415627 16.285 39.305626
35.419376 16.394375 39.284374
35.418751 16.500626 39.2775
35.413124 16.610001 39.255001
35.415627 16.719376 39.232498
35.414375 16.828751 39.219376
35.411877 16.935625 39.184376
35.415001 17.045 39.1525
35.413124 17.153749 39.142502
35.406876 17.26125 39.122501
35.403751 17.369375 39.109375
35.403126 17.475624 39.075001
35.404999 17.584999 39.049374
35.403751 17.695 39.036251
35.400002 17.804375 39.017502
35.400002 17.910625 39.00375
35.401249 18.02 38.984375
35.404373 18.129999 38.958752
35.404373 18.239374 38.94875
35.403126 18.345625 38.907501
35.407501 18.455 38.860001
35.408749 18.564375 38.853127
35.409374 18.669374 38.842499
35.414375 18.775625 38.813751
35.406876 18.885 38.754375
35.399376 18.994375 38.721249
35.394375 19.10125 38.703125
35.388748 19.21125 38.710625
35.385624 19.32375 38.726875
35.384377 19.433125 38.723125
35.380627 19.539375 38.679375
35.369373 19.645624 38.633751
35.361252 19.754375 38.598751
35.353748 19.860001 38.544376
35.343124 19.964375 38.4925
35.345627 20.071251 38.444374
35.344376 20.179375 38.389999
35.340626 20.285 38.335625
35.328125 20.390625 38.26125
35.31625 20.498751 38.203751
35.314999 20.605 38.160625
35.315624 20.709999 38.087502
35.314999 20.81625 38.02375
35.314999 20.924999 37.983749
35.306873 21.034374 37.945625
35.296875 21.13875 37.868126
35.294998 21.240625 37.791874
35.293125 21.345625 37.714375
35.289375 21.453751 37.650002
35.283749 21.559999 37.564377
35.275623 21.665001 37.521252
35.272499 21.77125 37.477501
35.272499 21.87875 37.4375
35.269375 21.985624 37.38625
35.265625 22.090626 37.342499
35.259377 22.199375 37.310001
35.254375 22.30625 37.261875
35.253124 22.414375 37.248123
35.250626 22.519375 37.200626
35.249374 22.625 37.139374
35.244999 22.731251 37.072498
35.241875 22.838751 37.018124
35.243126 22.944374 36.974998
35.233124 23.049376 36.904999
35.229374 23.155001 36.849998
35.224377 23.259375 36.811874
35.220627 23.365 36.740623
35.219376 23.471251 36.6675
35.214375 23.579374 36.638126
35.215 23.684376 36.609375
35.2075 23.790625 36.580002
35.195625 23.899376 36.57
35.188126 24.004999 36.53875
35.178123 24.11125 36.487499
35.178123 24.219376 36.448124
35.177502 24.325001 36.397499
35.18 24.43 36.362499
35.176876 24.535625 36.31625
35.172501 24.643749 36.278126
35.174999 24.74625 36.226875
35.171875 24.85375 36.174999
35.166248 24.960625 36.128124
35.168751 25.06875 36.095627
35.165627 25.171249 36.05125
35.164375 25.280001 36.037498
35.161251 25.38875 35.996876
35.15625 25.495001 35.970627
35.15625 25.600624 35.96125
35.153751 25.70875 35.931873
35.150002 25.81625 35.904373
35.144375 25.92375 35.858749
35.138748 26.028749 35.827499
35.142502 26.135626 35.801876
33.856876 42.645626 18.805
33.854374 42.75 18.801874
33.85125 42.851875 18.78875
33.848751 42.954376 18.779375
33.838749 43.055626 18.7425
33.837502 43.159374 18.73
33.840626 43.261875 18.715
33.839375 43.364376 18.705626
33.8325 43.466873 18.686874
33.830002 43.571251 18.68375
33.830624 43.675625 18.680626
33.830002 43.779373 18.671249
33.826248 43.880001 18.636875
33.822498 43.981876 18.615
33.823124 44.08625 18.611876
33.828125 44.19125 18.608749
33.827499 44.294998 18.602501
33.822498 44.399376 18.59
33.821251 44.500626 18.58375
33.822498 44.605 18.586876
33.827499 44.709999 18.599375
33.826874 44.813751 18.596251
33.819374 44.916248 18.568125
33.815624 45.020626 18.561874
33.81625 45.126251 18.568125
33.818748 45.233749 18.593124
33.82 45.34 18.602501
33.821251 45.445 18.605625
33.821251 45.550625 18.611876
33.823124 45.654999 18.62125
33.819374 45.7575 18.615
33.814999 45.864376 18.624374
33.814377 45.970001 18.627501
36.156876 -6.7706251 46.418751
36.129375 -6.6593752 46.205624
36.092499 -6.5450001 45.948124
36.048752 -6.4299998 45.630627
36.025002 -6.3156252 45.369999
36.009998 -6.2043748 45.126251
35.997501 -6.0906248 44.918751
35.981876 -5.9793749 44.712502
35.96875 -5.8656249 44.541874
35.961876 -5.7550001 44.396252
35.946877 -5.645 44.258751
35.938751 -5.5337501 44.126877
35.930626 -5.4206252 44.001877
35.923752 -5.3093748 43.869999
35.915001 -5.1956248 43.755627
35.905624 -5.085 43.645
35.89875 -4.9737501 43.536251
35.884998 -4.8606248 43.408749
35.883125 -4.75 43.314999
35.878124 -4.6399999 43.209999
35.870625 -4.5300002 43.075626
35.863125 -4.4200001 42.984375
35.855625 -4.3099999 42.905624
35.841873 -4.1999998 42.771252
35.831875 -4.089375 42.656876
35.828751 -3.9762499 42.56625
35.82 -3.865 42.451874
35.811249 -3.754375 42.335625
35.795624 -3.6412499 42.204376
35.791874 -3.53 42.118126
35.78875 -3.4200001 42.029373
35.780624 -3.3099999 41.938751
35.7775 -3.2 41.8325
35.775623 -3.090625 41.747501
35.768749 -2.984375 41.695
35.7575 -2.875 41.598125
35.744999 -2.764375 41.499374
35.736874 -2.6512499 41.4025
35.731251 -2.54 41.330624
35.724377 -2.4300001 41.240623
35.715 -2.3199999 41.110626
35.708126 -2.21 40.9725
35.703751 -2.0999999 40.846249
35.691875 -1.99 40.7225
35.68 -1.88 40.587502
35.669376 -1.770625 40.451874
35.66 -1.6643749 40.329376
35.648125 -1.5549999 40.236252
35.644375 -1.4450001 40.154373
35.641251 -1.335 40.067501
35.630001 -1.225 39.989376
35.620625 -1.115 39.905624
35.614376 -1.005 39.853748
35.615002 -0.89499998 39.817501
35.61375 -0.78500003 39.765625
35.610001 -0.67500001 39.740623
35.610001 -0.565 39.723125
35.605625 -0.455625 39.666874
35.5975 -0.34937501 39.630627
35.5975 -0.23999999 39.606251
35.59375 -0.13 39.579376
35.596874 -0.02 39.550625
35.599377 0.090000004 39.528126
35.599998 0.2 39.525002
35.599377 0.31 39.521873
35.596874 0.41999999 39.509377
35.596249 0.52999997 39.502499
35.598125 0.63937497 39.484375
35.603748 0.74562502 39.501877
35.608124 0.85500002 39.544376
35.607498 0.96499997 39.557499
35.602501 1.075 39.578751
35.60125 1.1849999 39.595001
35.60125 1.295 39.598125
35.601875 1.405 39.605
35.600624 1.514375 39.616249
35.606876 1.620625 39.643749
35.615002 1.73 39.678749
35.616875 1.84 39.691875
35.62125 1.95 39.736874
35.626251 2.0599999 39.775623
35.633125 2.1700001 39.802502
35.637501 2.28 39.857498
35.638126 2.3912499 39.944374
35.645626 2.5 40.051876
35.65625 2.6099999 40.154999
35.663124 2.7212501 40.254375
35.661877 2.8343749 40.343124
35.664375 2.9449999 40.465626
35.6675 3.0550001 40.584373
35.666248 3.165 40.66375
35.666874 3.275625 40.69125
35.670624 3.3887501 40.752499
35.674999 3.495625 40.787498
35.674999 3.605 40.791248
35.673126 3.7149999 40.814377
35.669998 3.825 40.839375
35.672501 3.9349999 40.856876
35.684376 4.0456252 40.884377
35.696251 4.1587501 40.891251
35.699375 4.2693748 40.891251
35.698124 4.3756251 40.865623
35.69125 4.4850001 40.843124
35.689999 4.5949998 40.8325
35.69125 4.7049999 40.817501
35.69875 4.8150001 40.8325
35.700001 4.9250002 40.817501
35.700001 5.0349998 40.813751
35.700626 5.145 40.824375
35.700001 5.2550001 40.856251
35.69875 5.3649998 40.906876
35.695 5.4749999 40.942501
35.693748 5.5856252 40.956875
35.689999 5.6993752 40.997501
35.686874 5.8099999 41.0275
35.681252 5.9193749 41.033749
35.681873 6.0256252 41.040627
35.692501 6.1350002 41.078751
35.698124 6.2449999 41.107498
35.700001 6.355 41.114376
35.706249 6.4662499 41.144375
35.706249 6.5793748 41.210625
35.711876 6.6900001 41.269375
35.721874 6.8000002 41.298752
35.733124 6.9099998 41.34
35.736874 7.0206251 41.356876
35.748749 7.1331248 41.404999
35.755627 7.2449999 41.456249
35.756248 7.355 41.473125
35.756874 7.4650002 41.540001
35.760624 7.5749998 41.595001
35.767502 7.6849999 41.624374
35.779373 7.7962499 41.641251
35.791874 7.9093752 41.689377
35.790001 8.0200005 41.716251
35.786877 8.1300001 41.751251
35.783127 8.2399998 41.796249
35.786877 8.3500004 41.8475
35.7925 8.4606247 41.887501
35.805 8.57125 41.932499
35.814999 8.6837502 41.970627
35.825001 8.7956247 42.008125
35.841873 8.9087496 42.066875
35.853127 9.0200005 42.107498
35.856876 9.1300001 42.13625
35.854374 9.2399998 42.174374
35.850624 9.3500004 42.189999
35.846874 9.46 42.158749
35.843124 9.569375 42.104374
35.841251 9.6768751 42.032501
35.839375 9.7843752 41.976875
35.82375 9.8912497 41.884377
35.805626 10 41.82
35.800625 10.11 41.799374
35.796249 10.22 41.751251
35.78875 10.329375 41.708752
35.785 10.44 41.670624
35.783127 10.55 41.656876
35.778126 10.66 41.630627
35.770626 10.76875 41.606251
35.764999 10.87625 41.578751
35.763126 10.985 41.550625
35.752499 11.09125 41.502499
35.746876 11.200625 41.47625
35.7425 11.31 41.462502
35.736252 11.42 41.434376
35.730625 11.53 41.385624
35.72625 11.639375 41.341251
35.720627 11.746875 41.302502
35.715626 11.85875 41.25
35.714375 11.96875 41.236252
35.709999 12.075625 41.191875
35.7075 12.185 41.140625
35.700626 12.294375 41.110626
35.696251 12.400625 41.06625
35.696251 12.50875 41.030624
35.686874 12.61625 40.989376
35.683125 12.725625 40.971874
35.683125 12.838125 40.958752
35.68 12.945625 40.894375
35.677502 13.054375 40.839375
35.671875 13.16375 40.810623
35.666248 13.27125 40.758751
35.663124 13.38 40.714375
35.660625 13.48875 40.696877
35.657501 13.595625 40.645626
35.659374 13.70125 40.578751
35.658749 13.810625 40.53875
35.653126 13.92 40.494373
35.644375 14.02875 40.455624
35.631874 14.135625 40.400623
35.625626 14.244375 40.345627
35.622501 14.35125 40.294376
35.619373 14.46 40.260624
35.625 14.57 40.209999
35.631874 14.67875 40.158127
35.639999 14.78125 40.096249
35.644375 14.88875 40.005627
35.643124 14.994375 39.8825
35.645 15.1 39.764374
35.639374 15.205625 39.682499
35.622501 15.314375 39.608124
35.608124 15.420625 39.553749
35.605 15.529375 39.525002
35.598751 15.635 39.4925
35.588749 15.740625 39.43
35.587502 15.85 39.389999
35.583752 15.96 39.368126
35.581875 16.068125 39.3475
35.578125 16.175625 39.309376
35.572498 16.285 39.278126
35.574375 16.394375 39.258125
35.57375 16.500626 39.251877
35.568127 16.609375 39.232498
35.570625 16.716249 39.2075
35.57 16.825624 39.200626
35.570625 16.934999 39.186874
35.576248 17.044374 39.145626
35.571877 17.151251 39.122501
35.565624 17.26 39.0975
35.564999 17.369375 39.09375
35.563751 17.475624 39.080624
35.563751 17.584999 39.05875
35.561249 17.695 39.043125
35.560001 17.804375 39.032501
35.561249 17.910625 39.010624
35.564999 18.02 38.984375
35.569374 18.129999 38.958752
35.569374 18.239374 38.94875
35.56625 18.345625 38.904373
35.568748 18.455 38.856876
35.568127 18.563749 38.846249
35.561874 18.666876 38.827499
35.55875 18.775625 38.817501
35.549999 18.885626 38.782501
35.546875 18.995001 38.769375
35.546875 19.104376 38.761875
35.548126 19.214375 38.744373
35.547501 19.32375 38.73
35.541874 19.430626 38.704376
35.532501 19.536249 38.647499
35.525623 19.645 38.609375
35.523125 19.75375 38.588123
35.514374 19.859375 38.528126
35.503124 19.961876 38.458126
35.503124 20.07 38.413124
35.501251 20.179375 38.370625
35.498749 20.285 38.325626
35.481876 20.389999 38.248123
35.470627 20.49625 38.177502
35.468124 20.604376 38.126877
35.470001 20.709999 38.064999
35.46875 20.815624 38.010624
35.464375 20.924999 37.959999
35.455002 21.033125 37.919376
35.448124 21.13625 37.834999
35.451248 21.24 37.765625
35.449375 21.344999 37.693748
35.448124 21.451876 37.641251
35.441875 21.559376 37.579376
35.43375 21.665625 37.541874
35.430626 21.77375 37.498749
35.433125 21.880625 37.464375
35.43 21.988125 37.413124
35.428123 22.091875 37.368126
35.421875 22.200624 37.339375
35.416874 22.30875 37.294998
35.414375 22.415625 37.2775
35.409374 22.52 37.226875
35.403126 22.625626 37.159374
35.403751 22.733749 37.116875
35.401249 22.840626 37.065624
35.403126 22.945625 37.014999
35.394375 23.050625 36.94125
35.389374 23.155624 36.883125
35.381874 23.26125 36.849998
35.376877 23.36875 36.796249
35.377499 23.474375 36.724998
35.371876 23.580626 36.696877
35.369999 23.686251 36.68375
35.36375 23.795 36.661251
35.352501 23.904375 36.639374
35.345627 24.009375 36.609375
35.338749 24.115625 36.580624
35.341251 24.224375 36.545624
35.341873 24.33 36.481876
35.344376 24.434999 36.445625
35.340626 24.540625 36.395
35.336876 24.64875 36.346874
35.340626 24.750626 36.291874
35.338749 24.856874 36.241249
35.333126 24.965 36.205002
35.333752 25.073126 36.172501
35.330624 25.17625 36.12875
35.330002 25.285 36.118752
35.328751 25.394375 36.095627
35.324375 25.5 36.070625
35.323124 25.605 36.053749
35.313751 25.711876 36.004375
35.308125 25.82 35.971249
35.306252 25.928749 35.942501
34.028126 42.873123 18.98875
34.026249 42.974377 18.985624
34.016876 43.075626 18.953751
34.014374 43.18 18.932501
34.013748 43.283749 18.92625
34.009998 43.38625 18.907499
34.003124 43.489376 18.885626
33.997501 43.594376 18.8825
33.99625 43.69875 18.879375
33.99625 43.800625 18.860624
33.997501 43.900623 18.8325
33.997501 44.004375 18.82625
33.997501 44.109375 18.823126
33.998749 44.213749 18.804375
33.995625 44.31625 18.78875
33.993752 44.419998 18.782499
33.993752 44.521252 18.782499
33.993752 44.625626 18.782499
33.994373 44.729374 18.780001
33.98875 44.831875 18.764376
33.985626 44.936249 18.758125
33.985001 45.043751 18.77375
33.985001 45.149376 18.776875
33.985001 45.255001 18.780001
33.985001 45.359375 18.780001
33.985001 45.464375 18.780001
33.985001 45.569374 18.780001
33.985001 45.674374 18.786249
33.981876 45.778751 18.795626
36.319374 -6.7706251 46.414375
36.296875 -6.6593752 46.198124
36.259377 -6.5450001 45.94125
36.215 -6.430625 45.638748
36.188126 -6.3156252 45.395626
36.170624 -6.2043748 45.154999
36.160625 -6.0912499 44.9575
36.148125 -5.9793749 44.759998
36.137501 -5.8656249 44.591251
36.128124 -5.7550001 44.451248
36.114376 -5.645 44.319374
36.105625 -5.5343752 44.197498
36.095627 -5.4212499 44.064999
36.086876 -5.3093748 43.929375
36.079376 -5.1956248 43.814999
36.068127 -5.085 43.708126
36.0625 -4.9743748 43.609375
36.050625 -4.8612499 43.484375
36.041874 -4.75 43.363125
36.032501 -4.6399999 43.221249
36.024376 -4.5300002 43.083126
36.014999 -4.4200001 42.991249
36.010624 -4.3099999 42.904373
36.005001 -4.1999998 42.790627
35.99625 -4.0900002 42.689999
35.989376 -3.97875 42.610626
35.98 -3.8656249 42.506874
35.973125 -3.7550001 42.407501
35.967499 -3.64375 42.313126
35.965626 -3.5306251 42.238125
35.960625 -3.4200001 42.129375
35.955624 -3.3099999 42.021252
35.944374 -3.2 41.880627
35.935001 -3.090625 41.755001
35.927502 -2.984375 41.689377
35.9175 -2.875 41.608749
35.91 -2.7650001 41.533127
35.903126 -2.6537499 41.4375
35.891251 -2.5406251 41.353127
35.8825 -2.4300001 41.246876
35.87875 -2.3199999 41.1175
35.872501 -2.21 40.985626
35.863125 -2.0999999 40.855
35.850624 -1.99 40.71125
35.836876 -1.88 40.571251
35.830002 -1.770625 40.439377
35.820625 -1.6643749 40.31625
35.803749 -1.5549999 40.220001
35.798126 -1.4450001 40.147499
35.794376 -1.335 40.063751
35.782501 -1.225 39.982498
35.774376 -1.115 39.893124
35.770626 -1.005 39.846874
35.773125 -0.89499998 39.798752
35.769375 -0.78500003 39.744373
35.763748 -0.67500001 39.710625
35.764999 -0.565 39.67625
35.759998 -0.455625 39.633751
35.755627 -0.34937501 39.602501
35.755627 -0.23999999 39.579376
35.755001 -0.13 39.569374
35.7575 -0.02 39.544376
35.755627 0.090000004 39.505627
35.755001 0.2 39.499374
35.755001 0.31 39.499374
35.754375 0.41999999 39.49625
35.755627 0.52999997 39.489376
35.758125 0.63937497 39.470627
35.759998 0.74562502 39.477501
35.76125 0.85500002 39.518124
35.76125 0.96499997 39.528126
35.759377 1.075 39.547501
35.760624 1.1849999 39.556873
35.76125 1.295 39.563751
35.763748 1.405 39.601875
35.762501 1.514375 39.630627
35.77 1.620625 39.656876
35.778751 1.73 39.681873
35.78125 1.84 39.695625
35.784374 1.95 39.746876
35.786877 2.0599999 39.795624
35.791874 2.1700001 39.831249
35.796875 2.2806251 39.88625
35.80125 2.3931251 39.971249
35.814999 2.5006249 40.099377
35.831875 2.6112499 40.216873
35.839375 2.7237501 40.323124
35.8325 2.835 40.411251
35.831249 2.9449999 40.52
35.8325 3.0550001 40.619373
35.830002 3.165 40.686874
35.830002 3.275625 40.7075
35.834999 3.3887501 40.758751
35.834999 3.495625 40.796875
35.830002 3.605 40.791248
35.825626 3.7149999 40.813751
35.821251 3.825 40.858749
35.821251 3.9349999 40.884377
35.831249 4.0450001 40.891251
35.841873 4.15625 40.876251
35.848125 4.2681251 40.883751
35.849998 4.3762498 40.869373
35.846249 4.4850001 40.839375
35.846249 4.5949998 40.817501
35.8475 4.7049999 40.813751
35.853748 4.8150001 40.828751
35.855 4.9250002 40.813751
35.855625 5.0349998 40.816875
35.857498 5.145 40.851875
35.856876 5.2550001 40.873749
35.850624 5.3649998 40.879375
35.843124 5.4749999 40.9175
35.841251 5.5856252 40.949375
35.839375 5.6993752 40.979374
35.835625 5.8093748 40.997501
35.833126 5.9187498 40.997501
35.834999 6.0250001 40.993752
35.84375 6.1350002 41.026875
35.846249 6.2449999 41.068748
35.849998 6.355 41.063126
35.858124 6.4656248 41.076874
35.859375 6.5787501 41.163124
35.868126 6.6893749 41.241875
35.880001 6.7993751 41.250626
35.88625 6.9099998 41.278751
35.887501 7.02 41.3125
35.89875 7.1312499 41.360001
35.904999 7.2443752 41.411877
35.905624 7.355 41.431873
35.90625 7.4650002 41.495625
35.910625 7.5749998 41.550625
35.915627 7.6849999 41.579376
35.92625 7.7956252 41.605625
35.938126 7.9087501 41.653751
35.938126 8.0200005 41.695625
35.935001 8.1300001 41.72625
35.929375 8.2399998 41.766876
35.931873 8.3500004 41.822498
35.94125 8.46 41.861252
35.954376 8.5699997 41.909374
35.962502 8.6812496 41.936249
35.970001 8.7937498 41.963749
35.978748 8.90625 42.001251
35.990623 9.0187502 42.044998
36.002499 9.1300001 42.09375
36.006248 9.2399998 42.13625
36.009377 9.3500004 42.174374
36.009377 9.46 42.170624
36.005001 9.5699997 42.122501
36.000626 9.67875 42.052502
35.998123 9.7856255 41.986874
35.988125 9.8937502 41.909374
35.973751 10.000625 41.854374
35.965626 10.11 41.815624
35.958752 10.219375 41.751251
35.948124 10.3275 41.703125
35.945 10.439375 41.682499
35.94125 10.55 41.656876
35.935623 10.659375 41.612499
35.92625 10.76625 41.578751
35.921249 10.875 41.55125
35.923752 10.984375 41.520626
35.918125 11.090625 41.47625
35.91375 11.2 41.444374
35.908127 11.31 41.424999
35.903751 11.42 41.408127
35.900002 11.53 41.364376
35.89875 11.63875 41.327499
35.893124 11.745625 41.275623
35.888126 11.855625 41.209373
35.886875 11.965625 41.191875
35.879375 12.075 41.154999
35.871876 12.184375 41.099377
35.868752 12.29375 41.078751
35.865002 12.399375 41.034374
35.863125 12.50625 41.004375
35.850624 12.615 40.956249
35.84375 12.725 40.924374
35.845627 12.835625 40.897499
35.844376 12.944375 40.843124
35.84 13.05125 40.794998
35.838123 13.160625 40.774376
35.834373 13.27 40.729374
35.828751 13.37875 40.677502
35.820625 13.48625 40.641876
35.815624 13.594375 40.591251
35.81625 13.700625 40.541874
35.814999 13.81 40.50375
35.810623 13.91875 40.455624
35.803749 14.02625 40.422501
35.791248 14.135 40.37125
35.784374 14.24375 40.319374
35.779999 14.350625 40.267502
35.772499 14.46 40.229374
35.77 14.569375 40.195625
35.7775 14.678125 40.148125
35.789375 14.78125 40.089375
35.798126 14.88875 40.012501
35.802502 14.995 39.927502
35.805626 15.100625 39.836876
35.801876 15.20625 39.728127
35.791248 15.314375 39.618752
35.778751 15.420625 39.557499
35.770626 15.529375 39.525002
35.763126 15.635 39.49625
35.751251 15.740625 39.4375
35.745625 15.85 39.390625
35.738125 15.95875 39.357498
35.733749 16.06625 39.32
35.735001 16.174999 39.28125
35.730625 16.285 39.245625
35.731251 16.394375 39.233124
35.731251 16.500626 39.233124
35.730625 16.609375 39.22625
35.732498 16.715626 39.200626
35.727501 16.825001 39.181252
35.727501 16.934999 39.171249
35.733749 17.044374 39.133125
35.731876 17.150625 39.116249
35.726875 17.26 39.09375
35.724998 17.369375 39.086876
35.721874 17.475624 39.068127
35.721249 17.584999 39.049374
35.720627 17.695 39.040001
35.721874 17.804375 39.032501
35.724998 17.910625 39.010624
35.728748 18.02 38.981251
35.732498 18.129999 38.955624
35.732498 18.239374 38.945625
35.73 18.345625 38.904373
35.72625 18.454374 38.849998
35.723751 18.563749 38.846249
35.715 18.6675 38.834373
35.708126 18.778749 38.842499
35.703751 18.888124 38.833126
35.705002 18.995625 38.814377
35.704376 19.105 38.804375
35.701248 19.214375 38.758125
35.69875 19.321251 38.700001
35.693127 19.429375 38.666874
35.685623 19.535625 38.624374
35.681252 19.643749 38.583126
35.681873 19.751249 38.55125
35.674374 19.858126 38.508125
35.66375 19.96125 38.44125
35.658749 20.07 38.393749
35.6525 20.178749 38.354374
35.647499 20.284374 38.296249
35.633751 20.389999 38.213749
35.628124 20.49625 38.159374
35.62875 20.604376 38.116875
35.626877 20.709375 38.046875
35.619999 20.815624 38.000626
35.612499 20.924376 37.943748
35.603748 21.030624 37.89875
35.599998 21.135 37.821251
35.599998 21.24 37.751251
35.5975 21.345625 37.689999
35.598125 21.453125 37.650002
35.588749 21.559999 37.588123
35.583752 21.665625 37.535
35.58625 21.774376 37.500626
35.588123 21.880625 37.470627
35.586876 21.989374 37.42625
35.589375 22.094999 37.397499
35.586876 22.203751 37.381248
35.581875 22.310625 37.33625
35.575001 22.418125 37.304375
35.568748 22.520624 37.251877
35.561874 22.626249 37.183125
35.5625 22.735001 37.143124
35.560001 22.84375 37.095627
35.561249 22.949375 37.056252
35.552502 23.054375 36.985626
35.549999 23.16 36.919998
35.544998 23.264999 36.890625
35.536877 23.370625 36.846874
35.535625 23.47625 36.785
35.533127 23.584375 36.767502
35.526875 23.690624 36.748123
35.520626 23.799999 36.72625
35.515625 23.908125 36.708752
35.511875 24.011875 36.674999
35.511875 24.120625 36.664375
35.514374 24.229376 36.629375
35.514374 24.334999 36.561874
35.515625 24.440001 36.526249
35.51125 24.545626 36.478748
35.5075 24.653749 36.442501
35.512501 24.75625 36.391251
35.509998 24.86375 36.33625
35.504375 24.969999 36.28875
35.500626 25.07625 36.238125
35.496876 25.18125 36.199375
35.49625 25.290001 36.186249
35.494999 25.399376 36.17625
35.490002 25.504999 36.150623
35.4925 25.610624 36.131248
35.485626 25.71875 36.095627
35.48 25.825624 36.067501
54.285 15.439375 37.153126
54.256248 15.320625 36.959999
54.230625 15.205 36.77
54.215 15.09 36.590626
54.199375 14.975 36.409374
54.186874 14.859375 36.208126
34.192501 43.095001 19.147499
34.188126 43.200001 19.131874
34.184376 43.305 19.138124
34.177502 43.408127 19.116249
34.171249 43.510624 19.0975
34.168751 43.615002 19.094376
34.169376 43.720001 19.091249
34.165627 43.822498 19.06625
34.161877 43.921875 19.031876
34.161251 44.025623 19.025625
34.163124 44.130627 19.025625
34.164375 44.235001 19.00375
34.161877 44.339375 18.997499
34.161251 44.443748 18.997499
34.161251 44.544998 18.997499
34.160625 44.64875 18.991875
34.163124 44.750626 18.975624
34.16 44.854374 18.9575
34.159374 44.959373 18.960625
34.156876 45.065624 18.979376
34.154373 45.169998 18.97625
34.151249 45.274376 18.960625
34.150623 45.376877 18.9575
34.150623 45.481251 18.9575
34.150623 45.58625 18.9575
54.176876 14.741875 36.023125
54.162498 14.63 35.865002
36.48 -6.7706251 46.44875
36.460625 -6.6593752 46.206249
36.428123 -6.5456252 45.940624
36.388748 -6.433125 45.66
36.358124 -6.3162498 45.426876
36.333752 -6.2049999 45.186249
36.322498 -6.09375 44.982498
36.307499 -5.98 44.774376
36.294998 -5.8656249 44.609375
36.286877 -5.7550001 44.488125
36.2775 -5.645 44.373749
36.27375 -5.5349998 44.256874
36.264374 -5.4237499 44.12125
36.255001 -5.3099999 43.993752
36.247501 -5.1956248 43.878124
36.236252 -5.085 43.763126
36.227501 -4.9749999 43.668751
36.219376 -4.86375 43.554375
36.210625 -4.7506251 43.428749
36.197498 -4.6399999 43.290001
36.188126 -4.5300002 43.15625
36.178749 -4.4200001 43.043125
36.173126 -4.3099999 42.933125
36.171249 -4.1999998 42.826248
36.162498 -4.0900002 42.735001
36.150623 -3.9793749 42.650002
36.141251 -3.8656249 42.546249
36.137501 -3.7550001 42.470627
36.130627 -3.6443751 42.375
36.125 -3.5306251 42.287498
36.118126 -3.4200001 42.174374
36.108749 -3.3099999 42.049374
36.099377 -3.2 41.909374
36.088123 -3.090625 41.772499
36.0825 -2.984375 41.689377
36.079376 -2.875 41.609375
36.078751 -2.7650001 41.534374
36.07 -2.6543751 41.447498
36.056252 -2.5406251 41.363125
36.046249 -2.4300001 41.25
36.03875 -2.3199999 41.136875
36.029373 -2.21 41.016251
36.017502 -2.0999999 40.872501
36.009998 -1.99 40.728748
35.997501 -1.88 40.591251
35.98875 -1.770625 40.451874
35.977501 -1.6643749 40.308125
35.966251 -1.5549999 40.209373
35.962502 -1.4450001 40.122501
35.955002 -1.335 40.028751
35.940624 -1.225 39.9575
35.928749 -1.115 39.8825
35.923752 -1.005 39.84375
35.928749 -0.89499998 39.785
35.925625 -0.78500003 39.718124
35.918751 -0.67500001 39.661251
35.913124 -0.565 39.599998
35.911251 -0.455625 39.580002
35.91375 -0.34937501 39.555
35.915001 -0.23999999 39.532501
35.91375 -0.13 39.525623
35.91375 -0.02 39.514999
35.911251 0.090000004 39.478127
35.910625 0.2 39.471249
35.910625 0.31 39.471249
35.911251 0.41999999 39.468124
35.91375 0.52999997 39.455624
35.915001 0.63937497 39.445
35.915627 0.74562502 39.451874
35.918751 0.85500002 39.493126
35.918751 0.96499997 39.503124
35.918125 1.075 39.528751
35.923752 1.1849999 39.547501
35.925625 1.295 39.557499
35.927502 1.405 39.599377
35.925625 1.514375 39.631248
35.933125 1.620625 39.657501
35.943127 1.73 39.689999
35.946877 1.84 39.718124
35.950626 1.95 39.785625
35.954376 2.0599999 39.84
35.958126 2.1700001 39.876251
35.963123 2.28125 39.934376
35.967499 2.39375 40.025623
35.980625 2.50125 40.177502
35.997501 2.61375 40.3125
36.006248 2.7249999 40.42625
36.005627 2.835 40.528126
36.008751 2.9449999 40.618752
36.0075 3.0550001 40.6675
35.998749 3.165 40.700626
35.99625 3.275625 40.729374
36.001877 3.3887501 40.7775
35.998123 3.495625 40.800625
35.986252 3.605 40.791248
35.98 3.7149999 40.813751
35.974998 3.825 40.858749
35.973125 3.9349999 40.887501
35.983749 4.0450001 40.891251
35.993752 4.1550002 40.868752
35.998123 4.2662501 40.869373
36.003124 4.3775001 40.869999
36.004375 4.4856248 40.83625
36.0075 4.5949998 40.806873
36.009377 4.7049999 40.806873
36.009998 4.8150001 40.813751
36.009998 4.9250002 40.810001
36.009377 5.0349998 40.813751
36.005627 5.145 40.839375
36.005001 5.2550001 40.846874
36.003124 5.3649998 40.849998
35.998123 5.4749999 40.894375
35.993752 5.5856252 40.942501
35.988125 5.6981249 40.961876
35.981251 5.8062501 40.949375
35.979374 5.915 40.9175
35.983124 6.0218749 40.889374
35.993752 6.13375 40.927502
35.99625 6.2443752 40.986874
35.998749 6.355 40.998123
36.011875 6.4650002 41.018749
36.02375 6.5756249 41.07
36.037498 6.6856251 41.128124
36.046249 6.7962499 41.157501
36.046875 6.9093752 41.213123
36.043751 7.02 41.278751
36.050625 7.1306248 41.319374
36.058125 7.2443752 41.37875
36.05875 7.3543749 41.415627
36.060623 7.4650002 41.466251
36.063751 7.5749998 41.514374
36.06625 7.6849999 41.528126
36.075001 7.7950001 41.557499
36.088749 7.90625 41.615623
36.095627 8.0193748 41.69875
36.094376 8.1300001 41.73
36.089375 8.2399998 41.736252
36.087502 8.3500004 41.7925
36.096249 8.46 41.844376
36.108749 8.5699997 41.889374
36.118126 8.6800003 41.909374
36.123123 8.7912502 41.929375
36.124374 8.9043751 41.960625
36.130627 9.0162497 41.990623
36.144375 9.1287498 42.041874
36.157501 9.2399998 42.09375
36.168125 9.3500004 42.129375
36.171875 9.46 42.145626
36.1675 9.5699997 42.122501
36.158749 9.6793747 42.076248
36.151249 9.7856255 41.993752
36.143749 9.8943748 41.916248
36.134998 10.000625 41.870625
36.130001 10.11 41.825001
36.122501 10.22 41.763748
36.110626 10.32875 41.712502
36.108749 10.44 41.685623
36.104374 10.55 41.650002
36.098125 10.65875 41.601875
36.08625 10.765625 41.557499
36.079376 10.875 41.5275
36.0825 10.984375 41.499374
36.078751 11.090625 41.465626
36.078125 11.2 41.434376
36.076874 11.31 41.408127
36.07 11.42 41.3825
36.06625 11.529375 41.341251
36.067501 11.63625 41.302502
36.057499 11.745 41.243752
36.049999 11.855 41.175625
36.050625 11.965 41.143749
36.044998 12.074375 41.103127
36.036877 12.18125 41.0625
36.035 12.29 41.052502
36.03125 12.39625 41.01125
36.028751 12.505 40.994373
36.017502 12.615 40.950001
36.011875 12.725 40.901249
36.013748 12.835 40.862499
36.009377 12.94375 40.810623
36 13.050625 40.762501
36.000626 13.16 40.739376
35.999374 13.269375 40.700626
35.993752 13.376875 40.6525
35.981876 13.485 40.5975
35.976875 13.594375 40.548752
35.978748 13.700625 40.510624
35.974998 13.80875 40.458752
35.970001 13.91625 40.407501
35.963123 14.025 40.374374
35.951248 14.134375 40.330002
35.943748 14.24125 40.287498
35.943127 14.35 40.232498
35.938751 14.459375 40.171249
35.931252 14.56625 40.133125
35.934376 14.675 40.099377
35.940624 14.78 40.048126
35.945 14.88625 39.989376
35.950001 14.995 39.938126
35.955624 15.10375 39.891876
35.960625 15.21 39.807499
35.950626 15.315 39.666874
35.939377 15.420625 39.579376
35.93375 15.529375 39.531876
35.924999 15.635 39.495625
35.915001 15.740625 39.426876
35.909374 15.849375 39.373749
35.9025 15.956875 39.343124
35.896873 16.065001 39.309376
35.898125 16.174999 39.280624
35.892502 16.285 39.251877
35.894375 16.394375 39.233124
35.893749 16.5 39.22625
35.893749 16.608749 39.2225
35.893749 16.715626 39.200626
35.889999 16.825001 39.181252
35.888748 16.934999 39.1675
35.889374 17.044374 39.142502
35.886875 17.150625 39.116249
35.888126 17.26 39.090626
35.888126 17.369375 39.083752
35.885624 17.475624 39.064999
35.884377 17.584999 39.051876
35.884998 17.695 39.035625
35.887501 17.803749 39.014374
35.888126 17.910625 39.000626
35.886875 18.02 38.965626
35.886875 18.129999 38.936874
35.888126 18.239374 38.93
35.890625 18.344999 38.890625
35.884998 18.452499 38.829376
35.879375 18.563749 38.853127
35.870625 18.67 38.865623
35.86375 18.779375 38.849998
35.860001 18.88625 38.82375
35.863125 18.995001 38.794998
35.863125 19.105 38.784374
35.856251 19.213751 38.738125
35.852501 19.320625 38.688126
35.851875 19.429375 38.650623
35.845001 19.535 38.59375
35.837502 19.641251 38.554375
35.834999 19.749374 38.502499
35.828125 19.855625 38.455002
35.815624 19.960625 38.400623
35.806252 20.06875 38.360626
35.796249 20.175625 38.306873
35.793751 20.28125 38.2425
35.793751 20.389999 38.203751
35.7925 20.498125 38.18375
35.787498 20.604376 38.12875
35.7775 20.706875 38.024376
35.771873 20.815001 37.967499
35.771873 20.92375 37.924374
35.763748 21.030001 37.876251
35.755627 21.135 37.802502
35.752499 21.24 37.741875
35.751251 21.344999 37.677502
35.752499 21.45125 37.639374
35.747501 21.559376 37.595627
35.745625 21.665625 37.536251
35.748123 21.774376 37.500626
35.743752 21.880625 37.474377
35.745625 21.989374 37.442501
35.748123 22.095625 37.416874
35.741249 22.203751 37.387501
35.735626 22.310625 37.339375
35.730625 22.418751 37.307499
35.72625 22.52125 37.259377
35.720627 22.62875 37.201248
35.716873 22.735624 37.153126
35.713123 22.844376 37.102501
35.715 22.950001 37.073124
35.711876 23.05625 37.025623
35.713123 23.16375 36.98875
35.71125 23.269375 36.96875
35.701874 23.375 36.91
35.696877 23.480625 36.860626
35.695625 23.589375 36.850624
35.689377 23.695625 36.825626
35.68375 23.804375 36.802502
35.684376 23.911249 36.778126
35.686249 24.016251 36.751251
35.691875 24.128124 36.758125
35.688751 24.235001 36.71125
35.688126 24.34 36.643124
35.691875 24.445 36.610001
35.688126 24.550625 36.5625
35.681873 24.658751 36.526249
35.68375 24.761875 36.478748
35.68 24.869375 36.427502
35.673752 24.975624 36.387501
35.671249 25.08375 36.346874
35.669998 25.189375 36.326874
35.669376 25.295626 36.289375
35.668125 25.404375 36.259377
35.664375 25.510626 36.237499
35.664375 25.615625 36.221249
54.140625 14.515 35.708126
54.113125 14.4 35.524376
54.105625 14.286875 35.39875
54.098751 14.17875 35.35125
54.090626 14.06625 35.30875
54.081249 13.955625 35.2775
54.075001 13.84625 35.241875
54.076248 13.739375 35.212502
54.061249 13.629375 35.169376
54.036877 13.516875 35.130627
54.028126 13.40875 35.126877
54.016251 13.300625 35.06625
34.339375 43.426876 19.293125
34.33625 43.530624 19.283751
34.338123 43.634998 19.280624
34.342499 43.73875 19.268749
34.338749 43.841251 19.253124
34.3325 43.944374 19.231251
34.3325 44.049374 19.231251
34.338123 44.154373 19.240625
34.337502 44.256248 19.2125
34.335625 44.360626 19.203125
34.334999 44.464375 19.196875
34.334373 44.565624 19.196875
34.330002 44.669376 19.18125
34.329376 44.770626 19.153749
34.330002 44.875 19.150625
34.333126 44.980625 19.169374
34.331875 45.087502 19.184999
34.326248 45.190624 19.172501
34.321877 45.295624 19.156876
34.32 45.399376 19.150625
54.008125 13.18875 34.99625
53.9925 13.07625 34.880627
53.986252 12.964375 34.797501
36.634377 -6.7706251 46.470627
36.615002 -6.6593752 46.235001
36.587502 -6.5456252 45.978127
36.55125 -6.4337502 45.695
36.521252 -6.316875 45.455624
36.498123 -6.2049999 45.216251
36.486252 -6.0943751 45.010624
36.470001 -5.98 44.804375
36.455624 -5.86625 44.653751
36.453125 -5.7550001 44.540001
36.446251 -5.645 44.429375
36.443748 -5.5349998 44.313126
36.431252 -5.4243751 44.185623
36.419998 -5.3099999 44.088749
36.412498 -5.1956248 43.973125
36.406876 -5.085 43.826248
36.39875 -4.9749999 43.711876
36.390625 -4.8643751 43.604374
36.38625 -4.7512498 43.506874
36.375626 -4.6399999 43.395626
36.361874 -4.5300002 43.256248
36.3475 -4.4200001 43.12125
36.339375 -4.3099999 42.991249
36.331875 -4.1999998 42.881248
36.321877 -4.0900002 42.790001
36.3125 -3.9793749 42.701248
36.303123 -3.86625 42.579376
36.298752 -3.7550001 42.50375
36.290627 -3.6443751 42.401249
36.281876 -3.53125 42.297501
36.274376 -3.4200001 42.185001
36.266251 -3.3099999 42.081249
36.260624 -3.2 41.971874
36.251877 -3.090625 41.85125
36.245625 -2.984375 41.733124
36.2425 -2.875 41.648125
36.244999 -2.7650001 41.583126
36.236874 -2.6543751 41.499374
36.224377 -2.54125 41.404373
36.213123 -2.4300001 41.263748
36.196877 -2.3199999 41.143749
36.184376 -2.21 41.026875
36.171249 -2.0999999 40.893749
36.16375 -1.99 40.756248
36.156876 -1.88 40.616249
36.149376 -1.770625 40.478127
36.138748 -1.6643749 40.32375
36.129375 -1.5549999 40.210625
36.123749 -1.4450001 40.106876
36.1175 -1.335 40.016251
36.104374 -1.225 39.938126
36.093124 -1.115 39.861874
36.08625 -1.005 39.817501
36.088123 -0.89499998 39.748749
36.083752 -0.78500003 39.689999
36.076248 -0.67500001 39.638126
36.069374 -0.565 39.575626
36.067501 -0.455625 39.55875
36.070625 -0.34937501 39.532501
36.072498 -0.23999999 39.509998
36.067501 -0.13 39.48875
36.067501 -0.02 39.478127
36.068748 0.090000004 39.455624
36.069374 0.2 39.452499
36.069374 0.31 39.44875
36.070625 0.41999999 39.452499
36.071251 0.52999997 39.445625
36.071251 0.63937497 39.430626
36.071877 0.74562502 39.43375
36.075001 0.85500002 39.464375
36.076248 0.96499997 39.478127
36.080002 1.075 39.522499
36.086876 1.1849999 39.55125
36.087502 1.295 39.558125
36.084999 1.405 39.583126
36.081249 1.514375 39.610626
36.087502 1.620625 39.645
36.098751 1.73 39.701874
36.103748 1.84 39.729374
36.11375 1.95 39.795624
36.118752 2.0599999 39.848125
36.1175 2.170625 39.886875
36.125 2.2837501 39.968124
36.133751 2.3943751 40.091873
36.146252 2.50125 40.254375
36.162498 2.6143751 40.391251
36.177502 2.7249999 40.500626
36.18 2.835 40.578125
36.18375 2.9449999 40.639374
36.183125 3.0550001 40.674374
36.179375 3.165 40.704376
36.177502 3.2762499 40.736252
36.172501 3.3887501 40.78125
36.160625 3.495625 40.788124
36.143124 3.605 40.784374
36.136875 3.7149999 40.807499
36.131248 3.825 40.842499
36.128124 3.9349999 40.869373
36.13625 4.0450001 40.883751
36.146873 4.1550002 40.865623
36.1525 4.2649999 40.845627
36.154373 4.3756251 40.821251
36.155624 4.4850001 40.784374
36.160625 4.5949998 40.762501
36.166874 4.7043748 40.780624
36.164375 4.8150001 40.803749
36.163124 4.9250002 40.810001
36.160625 5.0349998 40.810623
36.151875 5.145 40.8325
36.150002 5.2550001 40.84
36.149376 5.3649998 40.843124
36.145 5.4749999 40.872501
36.138748 5.585 40.91
36.1325 5.6956248 40.91375
36.131874 5.8049998 40.887501
36.136875 5.9143748 40.842499
36.140625 6.0206251 40.824375
36.14875 6.1306248 40.852501
36.154373 6.24125 40.880001
36.157501 6.3537502 40.911877
36.173126 6.4650002 40.990623
36.184376 6.5749998 41.037498
36.196877 6.6849999 41.092499
36.200001 6.7956252 41.140625
36.200626 6.9093752 41.216873
36.203125 7.02 41.28875
36.205624 7.1306248 41.305626
36.209373 7.2437501 41.345001
36.2075 7.3518748 41.389374
36.213123 7.464375 41.425625
36.216251 7.5749998 41.466251
36.216251 7.6849999 41.483749
36.221874 7.7950001 41.524376
36.235001 7.9056249 41.58625
36.245625 8.0187502 41.671875
36.248749 8.1300001 41.708752
36.249374 8.2399998 41.715626
36.246876 8.3500004 41.747501
36.253124 8.46 41.774376
36.259998 8.569375 41.806252
36.268124 8.6800003 41.841251
36.269375 8.7906246 41.868126
36.266876 8.9043751 41.903126
36.268749 9.0150003 41.919998
36.28125 9.1262503 41.967499
36.300625 9.2387505 42.031876
36.316875 9.3493748 42.070625
36.323124 9.4593754 42.090626
36.319374 9.569375 42.074375
36.310623 9.67875 42.041874
36.304375 9.7856255 41.986874
36.295624 9.8943748 41.916248
