ply
format ascii 1.0
comment PCL generated
element vertex 1530
property float x
property float y
property float z
element camera 0
property float view_px
property float view_py
property float view_pz
property float x_axisx
property float x_axisy
property float x_axisz
property float y_axisx
property float y_axisy
property float y_axisz
property float z_axisx
property float z_axisy
property float z_axisz
property float focal
property float scalex
property float scaley
property float centerx
property float centery
property int viewportx
property int viewporty
property float k1
property float k2
end_header
-33.677502 -33.415627 35.998749
-33.674999 -33.300625 35.909374
-33.668751 -33.1875 35.799999
-33.659374 -33.068127 35.671249
-33.665001 -32.954376 35.599377
-33.665627 -32.84 35.52
-33.666874 -32.724998 35.4175
-33.665001 -32.610001 35.327499
-33.664375 -32.494373 35.229374
-33.66 -32.380627 35.170624
-33.66 -32.270626 35.126877
-33.658749 -32.162498 35.099998
-33.653126 -32.045624 35.014999
-33.642502 -31.93125 34.935001
-33.627499 -31.82375 34.888126
-33.615002 -31.710625 34.835625
-33.606251 -31.598749 34.791248
-33.59375 -31.485001 34.721249
-33.591251 -31.374374 34.665627
-33.59 -31.261875 34.606876
-33.59 -31.153126 34.59
-33.589375 -31.04125 34.563751
-33.586876 -30.930626 34.539375
-33.589375 -30.82375 34.509377
-33.584373 -30.710625 34.459373
-33.576248 -30.599375 34.42625
-33.574375 -30.49 34.419998
-33.571251 -30.383751 34.404373
-33.57 -30.274376 34.404373
-33.682499 -36.070625 38.084999
-33.678749 -35.955002 37.990623
-33.673126 -35.839375 37.889374
-33.665627 -35.720001 37.775623
-33.655624 -35.604374 37.669998
-33.650002 -35.486252 37.567501
-33.647499 -35.37125 37.483749
-33.638126 -35.258751 37.399376
-33.629375 -35.141876 37.304375
-33.618752 -35.025002 37.223751
-33.605625 -34.91 37.149376
-33.603127 -34.794998 37.046249
-33.598751 -34.678749 36.947498
-33.59375 -34.56625 36.911251
-33.584999 -34.455624 36.860001
-33.578125 -34.340626 36.779373
-33.579376 -34.224377 36.674374
-33.575001 -34.106251 36.566875
-33.5625 -33.993752 36.474377
-33.555626 -33.876251 36.356251
-33.546875 -33.760624 36.256248
-33.528751 -33.645626 36.159374
-33.518749 -33.529999 36.050625
-33.512501 -33.41375 35.944374
-33.511875 -33.295624 35.835625
-33.510624 -33.181252 35.71875
-33.506248 -33.064999 35.609375
-33.512501 -32.950001 35.526249
-33.512501 -32.834999 35.439999
-33.513126 -32.720001 35.341251
-33.512501 -32.605625 35.268124
-33.516876 -32.491249 35.203125
-33.521252 -32.379375 35.146252
-33.52375 -32.269375 35.103127
-33.520626 -32.159374 35.056252
-33.51125 -32.044376 34.982498
-33.501251 -31.930626 34.916248
-33.479374 -31.82375 34.895626
-33.459373 -31.71125 34.858749
-33.450001 -31.599375 34.819374
-33.439999 -31.48625 34.755627
-33.439377 -31.378124 34.715
-33.438751 -31.264999 34.665627
-33.4375 -31.155001 34.631248
-33.434376 -31.043751 34.59
-33.431252 -30.931875 34.563751
-33.433125 -30.82375 34.533127
-33.429375 -30.71125 34.486874
-33.421875 -30.600624 34.459373
-33.419376 -30.491249 34.455624
-33.415627 -30.385 34.443127
-33.545624 -36.300625 38.260624
-33.52375 -36.178123 38.098125
-33.514374 -36.063751 37.993752
-33.516251 -35.94875 37.89875
-33.510624 -35.830624 37.78875
-33.503124 -35.712502 37.680626
-33.491875 -35.598751 37.58625
-33.485626 -35.480625 37.486874
-33.485001 -35.365623 37.40625
-33.481251 -35.254375 37.338749
-33.470001 -35.138126 37.258125
-33.459373 -35.020626 37.178123
-33.448124 -34.904999 37.09375
-33.441875 -34.790001 36.979374
-33.435623 -34.672501 36.877499
-33.431252 -34.561249 36.840626
-33.421875 -34.453125 36.795624
-33.41375 -34.338123 36.715
-33.415627 -34.220001 36.593124
-33.410625 -34.101875 36.494999
-33.397499 -33.990002 36.424999
-33.386875 -33.874374 36.32375
-33.374374 -33.758751 36.23
-33.356251 -33.644375 36.142502
-33.352501 -33.528126 36.018124
-33.355 -33.41 35.887501
-33.358124 -33.291874 35.772499
-33.358124 -33.178749 35.67625
-33.353748 -33.063751 35.589375
-33.358124 -32.945625 35.485001
-33.361252 -32.830002 35.385624
-33.358749 -32.716251 35.290001
-33.356876 -32.603748 35.241249
-33.355625 -32.489376 35.18375
-33.358749 -32.376251 35.100624
-33.358749 -32.265625 35.028126
-33.360626 -32.154373 34.971249
-33.359375 -32.040627 34.916248
-33.353127 -31.9275 34.872501
-33.330624 -31.823126 34.878124
-33.311249 -31.713125 34.868126
-33.297501 -31.600624 34.833126
-33.284374 -31.486876 34.779373
-33.283749 -31.37875 34.74625
-33.280624 -31.266251 34.695625
-33.2775 -31.155624 34.644375
-33.276249 -31.045 34.603127
-33.275623 -30.934376 34.590626
-33.275623 -30.825624 34.560623
-33.27375 -30.714375 34.517502
-33.269375 -30.605 34.497501
-33.266251 -30.495625 34.506874
-33.262501 -30.38875 34.50375
-33.424374 -36.659374 38.633125
-33.369373 -36.293751 38.158749
-33.359375 -36.174374 38.035625
-33.353748 -36.056252 37.911251
-33.350624 -35.940624 37.794998
-33.345627 -35.825001 37.715
-33.339375 -35.708752 37.612499
-33.328751 -35.594376 37.515625
-33.322498 -35.47625 37.42625
-33.319374 -35.360626 37.345001
-33.317501 -35.248749 37.268124
-33.305626 -35.131874 37.188126
-33.296249 -35.014999 37.107498
-33.286877 -34.900623 37.025002
-33.282501 -34.787498 36.930626
-33.276249 -34.670624 36.840626
-33.276249 -34.559376 36.7925
-33.270626 -34.44875 36.728127
-33.262501 -34.331249 36.638126
-33.262501 -34.215 36.523125
-33.2575 -34.099377 36.444374
-33.243752 -33.987499 36.384377
-33.229374 -33.869999 36.280624
-33.215 -33.752499 36.172501
-33.201874 -33.639374 36.080002
-33.196877 -33.521873 35.951248
-33.198124 -33.404999 35.817501
-33.201248 -33.289375 35.724998
-33.203751 -33.174999 35.62875
-33.202499 -33.059376 35.536251
-33.19875 -32.94125 35.424374
-33.197498 -32.826248 35.331249
-33.19125 -32.713749 35.236874
-33.188751 -32.600624 35.181252
-33.186249 -32.486252 35.126877
-33.1875 -32.375 35.063751
-33.178749 -32.264374 34.99625
-33.17625 -32.151249 34.941875
-33.18 -32.039375 34.895
-33.181252 -31.925625 34.855625
-33.173126 -31.819374 34.855625
-33.161251 -31.71125 34.858749
-33.143124 -31.603125 34.849377
-33.130627 -31.49 34.808125
-33.129375 -31.380625 34.775623
-33.125626 -31.269375 34.724377
-33.123749 -31.158751 34.673752
-33.124374 -31.046249 34.644375
-33.123123 -30.935625 34.631248
-33.120625 -30.828125 34.594376
-33.116249 -30.716875 34.564377
-33.11375 -30.608749 34.555
-33.112499 -30.499374 34.555
-33.275623 -36.77 38.658749
-33.252499 -36.64875 38.498749
-33.228748 -36.526249 38.329376
-33.215 -36.405624 38.178749
-33.202499 -36.286877 38.074375
-33.195625 -36.169376 37.965
-33.19125 -36.050625 37.833752
-33.185623 -35.935001 37.709999
-33.182499 -35.819374 37.640625
-33.174999 -35.702499 37.545624
-33.164375 -35.589375 37.458126
-33.160625 -35.473751 37.373749
-33.1525 -35.356876 37.291248
-33.149376 -35.244373 37.209999
-33.140625 -35.12875 37.130001
-33.135624 -35.010624 37.046875
-33.125626 -34.895 36.965626
-33.118752 -34.78125 36.866875
-33.111252 -34.666248 36.783749
-33.115623 -34.555 36.728748
-33.118752 -34.443748 36.661251
-33.113125 -34.325626 36.564377
-33.105 -34.209373 36.455624
-33.098751 -34.092499 36.36375
-33.085625 -33.98 36.287498
-33.076874 -33.865002 36.196251
-33.068748 -33.749374 36.1175
-33.056873 -33.637501 36.046875
-33.044376 -33.519375 35.90625
-33.040627 -33.400623 35.755001
-33.044376 -33.285 35.673126
-33.046249 -33.169998 35.568748
-33.046875 -33.054375 35.466251
-33.041248 -32.939377 35.3675
-33.03125 -32.824375 35.284374
-33.021252 -32.710625 35.200626
-33.017502 -32.598751 35.143124
-33.015625 -32.485001 35.092499
-33.016251 -32.374374 35.040001
-33.005001 -32.263748 34.987499
-32.99625 -32.151249 34.945625
-32.99625 -32.03875 34.901249
-32.998749 -31.92375 34.834999
-33.00375 -31.815624 34.814999
-33.002499 -31.709999 34.834373
-32.988125 -31.60375 34.852501
-32.97625 -31.491249 34.824375
-32.973751 -31.3825 34.794998
-32.969376 -31.270624 34.747501
-32.967499 -31.16 34.701874
-32.968124 -31.04875 34.6675
-32.965626 -30.936251 34.645
-32.966251 -30.829374 34.615623
-32.958752 -30.719376 34.587502
-32.952499 -30.610001 34.571251
-32.950001 -30.500626 34.568127
-33.118126 -36.883125 38.681873
-33.095001 -36.759998 38.516251
-33.07375 -36.637501 38.368126
-33.056873 -36.52 38.256874
-33.049999 -36.403126 38.141876
-33.044376 -36.284374 38.023125
-33.036251 -36.164375 37.901249
-33.031876 -36.045624 37.775002
-33.022499 -35.93 37.654373
-33.016251 -35.814999 37.583752
-33.012501 -35.699375 37.506248
-33.00375 -35.585625 37.420624
-32.99625 -35.470001 37.326874
-32.986874 -35.354374 37.2425
-32.983124 -35.240002 37.156876
-32.971874 -35.124374 37.069374
-32.965626 -35.005627 36.98
-32.959373 -34.891251 36.908749
-32.951248 -34.778751 36.810001
-32.943127 -34.664375 36.731876
-32.946877 -34.550625 36.671249
-32.950001 -34.438751 36.59375
-32.949375 -34.320625 36.48875
-32.941875 -34.205002 36.404373
-32.938751 -34.089375 36.317501
-32.926876 -33.974998 36.206875
-32.920624 -33.859375 36.108749
-32.908127 -33.741875 36.017502
-32.896873 -33.630001 35.938126
-32.889999 -33.513748 35.818748
-32.893124 -33.395626 35.690624
-32.893124 -33.279373 35.594376
-32.888126 -33.164375 35.476875
-32.881248 -33.046875 35.374374
-32.875626 -32.934376 35.303749
-32.865623 -32.82 35.223751
-32.856251 -32.705624 35.134377
-32.853748 -32.594376 35.080624
-32.846874 -32.481251 35.044376
-32.843124 -32.370625 34.997501
-32.836876 -32.26125 34.968124
-32.833126 -32.1525 34.955624
-32.828751 -32.040627 34.932499
-32.828125 -31.928125 34.875
-32.835625 -31.816875 34.825001
-32.838123 -31.709999 34.830624
-32.827499 -31.60375 34.852501
-32.816875 -31.490625 34.811874
-32.814999 -31.38125 34.785625
-32.811249 -31.27 34.754375
-32.8125 -31.160625 34.721249
-32.809376 -31.049376 34.677502
-32.803123 -30.936874 34.648125
-32.803749 -30.83 34.625626
-32.797501 -30.719999 34.600624
-32.794998 -30.610624 34.59375
-32.965 -36.994999 38.721249
-32.931252 -36.872501 38.557499
-32.914375 -36.751877 38.422501
-32.903751 -36.631248 38.297501
-32.892502 -36.514999 38.188751
-32.887501 -36.396873 38.078125
-32.885624 -36.278751 37.959373
-32.875626 -36.157501 37.818127
-32.869999 -36.040627 37.700626
-32.861874 -35.924999 37.59375
-32.850624 -35.810001 37.517502
-32.845627 -35.695625 37.455624
-32.839375 -35.583126 37.378124
-32.833752 -35.466251 37.2925
-32.825626 -35.350624 37.211876
-32.818748 -35.235626 37.111252
-32.806873 -35.119373 37.009998
-32.798126 -35.001877 36.925625
-32.793751 -34.888748 36.861252
-32.786877 -34.775623 36.761875
-32.776875 -34.66 36.681873
-32.772499 -34.545624 36.6175
-32.770626 -34.43375 36.529999
-32.771252 -34.315624 36.418125
-32.775002 -34.200001 36.344376
-32.7775 -34.084999 36.275623
-32.765625 -33.970001 36.157501
-32.759998 -33.853748 36.049374
-32.751251 -33.736252 35.942501
-32.744999 -33.623123 35.828751
-32.743126 -33.506248 35.728748
-32.744373 -33.388748 35.616249
-32.736252 -33.271873 35.502499
-32.724998 -33.158749 35.389999
-32.716873 -33.041248 35.291248
-32.713123 -32.929375 35.226875
-32.704376 -32.814999 35.153126
-32.693748 -32.701248 35.077499
-32.692501 -32.590626 35.041248
-32.686249 -32.479374 35.012501
-32.683125 -32.369999 34.971874
-32.677502 -32.259998 34.946251
-32.675625 -32.150623 34.939377
-32.673752 -32.040001 34.932499
-32.670624 -31.929375 34.898125
-32.674374 -31.819374 34.855625
-32.677502 -31.710625 34.844376
-32.671875 -31.60375 34.861874
-32.661877 -31.491249 34.818127
-32.659374 -31.383125 34.798752
-32.653126 -31.27125 34.775623
-32.654999 -31.163124 34.744373
-32.651249 -31.050625 34.701874
-32.645626 -30.940001 34.674374
-32.645 -30.833124 34.664375
-32.641251 -30.721874 34.648125
-32.638748 -30.61375 34.648125
-32.813751 -37.109375 38.776249
-32.787498 -36.990002 38.662498
-32.760624 -36.870625 38.523125
-32.749374 -36.752499 38.421875
-32.740623 -36.631248 38.293751
-32.734375 -36.513748 38.159374
-32.729374 -36.393749 38.024376
-32.7225 -36.275002 37.904999
-32.711876 -36.154999 37.76125
-32.705002 -36.03875 37.651249
-32.695625 -35.921249 37.546875
-32.684376 -35.805626 37.469376
-32.679375 -35.69125 37.405624
-32.672501 -35.579376 37.328125
-32.668751 -35.464375 37.247501
-32.66375 -35.349377 37.179375
-32.655624 -35.233749 37.077499
-32.64875 -35.116249 36.976875
-32.638748 -35 36.895
-32.626877 -34.88625 36.831875
-32.618126 -34.773125 36.733749
-32.613125 -34.65625 36.646252
-32.605625 -34.540627 36.561874
-32.596874 -34.428749 36.459999
-32.594376 -34.310623 36.3475
-32.602501 -34.195 36.254375
-32.602501 -34.079376 36.164375
-32.596249 -33.963749 36.052502
-32.598751 -33.846249 35.956249
-32.5975 -33.73 35.859375
-32.591251 -33.616249 35.7425
-32.584999 -33.498749 35.626251
-32.581875 -33.381248 35.508751
-32.576874 -33.265625 35.411877
-32.563126 -33.153751 35.313126
-32.554375 -33.036877 35.221249
-32.550625 -32.924999 35.16
-32.544998 -32.811249 35.096249
-32.535 -32.699375 35.028126
-32.530624 -32.588749 34.994373
-32.526249 -32.476875 34.974998
-32.525623 -32.369373 34.961876
-32.52375 -32.259998 34.942501
-32.52 -32.150002 34.921249
-32.518124 -32.039375 34.904373
-32.512501 -31.9275 34.875626
-32.511875 -31.82 34.863125
-32.512501 -31.71125 34.859375
-32.51125 -31.60375 34.862499
-32.5075 -31.491875 34.831249
-32.508125 -31.384375 34.811874
-32.502499 -31.271875 34.785625
-32.503124 -31.16375 34.754375
-32.499374 -31.05125 34.728748
-32.491875 -30.94125 34.705624
-32.490623 -30.834999 34.702499
-32.48875 -30.725 34.699375
-32.629375 -37.10125 38.690624
-32.611252 -36.985001 38.609375
-32.599377 -36.868126 38.49625
-32.59 -36.749374 38.378124
-32.578125 -36.62875 38.255627
-32.574375 -36.509377 38.120625
-32.573124 -36.387501 37.958126
-32.56625 -36.269375 37.835625
-32.555 -36.150623 37.710625
-32.544376 -36.035625 37.6175
-32.535625 -35.919998 37.520626
-32.5275 -35.804375 37.450001
-32.520626 -35.689377 37.375626
-32.510624 -35.575626 37.290001
-32.503124 -35.459999 37.196251
-32.499374 -35.345001 37.128124
-32.4925 -35.23 37.029373
-32.48875 -35.114376 36.938751
-32.478748 -34.999374 36.861252
-32.465 -34.884377 36.797501
-32.455624 -34.77 36.696877
-32.450001 -34.653751 36.598751
-32.443127 -34.536877 36.493126
-32.433125 -34.424374 36.389374
-32.428123 -34.306252 36.283749
-32.435001 -34.189377 36.18
-32.434376 -34.071251 36.061874
-32.43 -33.955624 35.94125
-32.43375 -33.839375 35.855625
-32.438126 -33.724998 35.761875
-32.435623 -33.611874 35.666874
-32.424999 -33.4925 35.537498
-32.418751 -33.375626 35.425625
-32.416248 -33.26125 35.341873
-32.403751 -33.150002 35.262501
-32.391876 -33.035625 35.197498
-32.388748 -32.923752 35.139999
-32.38625 -32.809376 35.066875
-32.375626 -32.696251 34.997501
-32.370625 -32.585625 34.971249
-32.369373 -32.475624 34.965
-32.368126 -32.368752 34.961876
-32.366875 -32.259998 34.951874
-32.360626 -32.150002 34.925625
-32.359375 -32.040001 34.895
-32.358749 -31.929375 34.87875
-32.359375 -31.82375 34.881874
-32.360001 -31.713751 34.87875
-32.360001 -31.605 34.875626
-32.359375 -31.495001 34.859375
-32.359375 -31.388124 34.849377
-32.353748 -31.275 34.821251
-32.35125 -31.165625 34.78875
-32.348751 -31.055 34.775623
-32.341873 -30.945 34.754375
-32.340626 -30.838751 34.750626
-32.339375 -30.729376 34.750626
-32.471874 -37.212502 38.723751
-32.4575 -37.095627 38.623123
-32.452499 -36.98 38.5425
-32.445 -36.861252 38.43
-32.434376 -36.740623 38.294998
-32.420624 -36.62125 38.166874
-32.412498 -36.504375 38.048126
-32.409374 -36.384377 37.900623
-32.401875 -36.265625 37.786877
-32.393124 -36.146873 37.674999
-32.381248 -36.033749 37.587502
-32.373749 -35.919376 37.4925
-32.366875 -35.80125 37.408749
-32.363125 -35.686249 37.328125
-32.353748 -35.573124 37.243752
-32.345001 -35.456249 37.145626
-32.338749 -35.34 37.07375
-32.333126 -35.224998 36.973751
-32.328125 -35.110001 36.875626
-32.315624 -34.994999 36.794376
-32.301876 -34.880001 36.73
-32.294376 -34.765625 36.634998
-32.287498 -34.650623 36.55875
-32.281876 -34.535 36.459999
-32.278126 -34.423126 36.369373
-32.272499 -34.304375 36.25375
-32.274376 -34.185001 36.119373
-32.275002 -34.065624 35.994373
-32.271873 -33.949375 35.865623
-32.267502 -33.831875 35.749374
-32.27 -33.716251 35.645626
-32.266251 -33.605 35.569374
-32.255627 -33.489376 35.470001
-32.247501 -33.374374 35.38625
-32.244999 -33.259998 35.303123
-32.237499 -33.14875 35.223125
-32.225624 -33.034374 35.153126
-32.221874 -32.920624 35.096249
-32.219376 -32.806252 35.028751
-32.21125 -32.695 34.974998
-32.209999 -32.584999 34.961876
-32.208752 -32.474998 34.958752
-32.200626 -32.366249 34.938751
-32.19875 -32.259377 34.9175
-32.196251 -32.149376 34.891876
-32.196251 -32.03875 34.87875
-32.199375 -31.9275 34.869373
-32.203125 -31.8225 34.875626
-32.206875 -31.711876 34.862499
-32.208752 -31.60375 34.859375
-32.208752 -31.495001 34.856251
-32.2075 -31.38875 34.856251
-32.201874 -31.276875 34.837502
-32.200001 -31.168751 34.82375
-32.199375 -31.05875 34.820625
-32.195625 -30.946875 34.804375
-32.195 -30.84 34.805
-32.327499 -37.333126 38.850624
-32.305 -37.21125 38.703125
-32.296249 -37.09375 38.587502
-32.294376 -36.978127 38.493752
-32.288124 -36.858124 38.368752
-32.278751 -36.736252 38.224377
-32.264999 -36.616249 38.093124
-32.254375 -36.499374 37.98875
-32.248749 -36.380627 37.861252
-32.239376 -36.263748 37.748749
-32.229374 -36.145 37.630627
-32.217499 -36.030624 37.543125
-32.21125 -35.918125 37.471874
-32.205002 -35.799999 37.37875
-32.201874 -35.684376 37.293125
-32.193748 -35.570625 37.212502
-32.184376 -35.454376 37.115623
-32.173126 -35.33625 37.026249
-32.166874 -35.220627 36.92625
-32.16375 -35.105625 36.842499
-32.154373 -34.990623 36.759998
-32.143124 -34.876251 36.693748
-32.136875 -34.763748 36.595001
-32.133751 -34.64875 36.51125
-32.126877 -34.53125 36.405624
-32.123749 -34.418125 36.311249
-32.119999 -34.299999 36.189999
-32.116249 -34.179375 36.048752
-32.11375 -34.060623 35.920624
-32.108749 -33.945 35.796249
-32.10125 -33.828751 35.68375
-32.099998 -33.71125 35.576248
-32.09 -33.599377 35.479374
-32.084373 -33.485001 35.400002
-32.079376 -33.370625 35.3325
-32.075001 -33.256248 35.243126
-32.066875 -33.144375 35.16
-32.05875 -33.030624 35.102501
-32.059376 -32.918751 35.066875
-32.055 -32.805626 35.015625
-32.048126 -32.695 34.96875
-32.049999 -32.584999 34.946251
-32.047501 -32.474998 34.939377
-32.031876 -32.365623 34.914375
-32.029999 -32.258125 34.900623
-32.035 -32.146252 34.869373
-32.036251 -32.035625 34.863125
-32.036251 -31.92625 34.863125
-32.036877 -31.82 34.859375
-32.041248 -31.709999 34.837502
-32.050625 -31.600624 34.830624
-32.052502 -31.4925 34.841251
-32.050625 -31.38875 34.859375
-32.049374 -31.279375 34.855625
-32.049374 -31.17 34.837502
-32.050625 -31.059376 34.826874
-32.048126 -30.949375 34.827499
-32.174999 -37.443127 38.91
-32.158127 -37.328751 38.798752
-32.151249 -37.208752 38.6675
-32.141251 -37.087502 38.520626
-32.133751 -36.970001 38.410625
-32.125626 -36.851875 38.298126
-32.1175 -36.733749 38.179375
-32.105 -36.614376 38.050625
-32.091873 -36.495625 37.923126
-32.084999 -36.376251 37.796875
-32.076248 -36.259377 37.698124
-32.067501 -36.141251 37.59375
-32.060623 -36.026249 37.495625
-32.053749 -35.91375 37.424374
-32.0425 -35.796249 37.334999
-32.039375 -35.681252 37.254375
-32.040001 -35.568748 37.186249
-32.029999 -35.453751 37.102501
-32.014999 -35.335625 37
-32.005627 -35.220001 36.898125
-32.001877 -35.105 36.825626
-31.996876 -34.989376 36.733749
-31.993126 -34.874374 36.649376
-31.986876 -34.760624 36.547501
-31.981874 -34.644375 36.450001
-31.973749 -34.525623 36.331249
-31.968124 -34.411251 36.22625
-31.968124 -34.293751 36.109375
-31.960625 -34.172501 35.965626
-31.950624 -34.055 35.844376
-31.940001 -33.940624 35.73875
-31.93125 -33.825001 35.633751
-31.9275 -33.706875 35.526875
-31.92 -33.595001 35.429375
-31.915625 -33.481251 35.3675
-31.911875 -33.368752 35.306873
-31.91 -33.254375 35.223751
-31.905001 -33.140625 35.130627
-31.9 -33.026249 35.076874
-31.901875 -32.915627 35.044376
-31.895 -32.804375 34.994373
-31.889376 -32.695 34.961876
-31.8925 -32.584999 34.939377
-31.891251 -32.474998 34.929375
-31.880625 -32.364376 34.888126
-31.879375 -32.255001 34.875
-31.884375 -32.145 34.859375
-31.883751 -32.035625 34.863125
-31.879999 -31.928749 34.875626
-31.876875 -31.820625 34.862499
-31.88125 -31.710625 34.837502
-31.9 -31.60125 34.825001
-31.904375 -31.494375 34.858749
-31.89625 -31.389376 34.881874
-31.893749 -31.280001 34.87875
-31.895 -31.168751 34.845627
-31.89875 -31.05625 34.811874
-31.891251 -30.946875 34.811249
-31.997499 -37.439999 38.841873
-31.995001 -37.32375 38.72625
-31.99375 -37.205002 38.609375
-31.9825 -37.084373 38.463123
-31.970625 -36.966251 38.352501
-31.960625 -36.848751 38.244373
-31.952499 -36.73 38.133751
-31.945 -36.611252 38.021873
-31.931875 -36.494373 37.893124
-31.925625 -36.375 37.762501
-31.92 -36.256248 37.658749
-31.915001 -36.139999 37.56625
-31.909374 -36.025002 37.466251
-31.89875 -35.910625 37.392502
-31.88625 -35.794998 37.325001
-31.883125 -35.68 37.244373
-31.881874 -35.565624 37.161251
-31.871876 -35.450001 37.07375
-31.8575 -35.334999 36.977501
-31.8475 -35.220001 36.875
-31.848125 -35.104374 36.791874
-31.845625 -34.986252 36.7075
-31.844376 -34.87125 36.62125
-31.835625 -34.758125 36.510624
-31.82375 -34.640625 36.393124
-31.81625 -34.521873 36.280624
-31.815001 -34.408127 36.182499
-31.817499 -34.290627 36.071251
-31.80625 -34.169376 35.921249
-31.790625 -34.051876 35.798752
-31.77375 -33.939377 35.709999
-31.766251 -33.82375 35.603748
-31.76375 -33.706249 35.502499
-31.7575 -33.594376 35.418751
-31.752501 -33.48 35.357498
-31.750626 -33.365623 35.28125
-31.749374 -33.251251 35.200626
-31.74375 -33.139374 35.109375
-31.737499 -33.025623 35.066875
-31.73875 -32.914375 35.035
-31.73 -32.801876 34.974998
-31.723749 -32.693748 34.938751
-31.725 -32.584373 34.911251
-31.725624 -32.473751 34.897499
-31.724375 -32.360626 34.840626
-31.725624 -32.251251 34.821251
-31.731874 -32.144375 34.834373
-31.729376 -32.035625 34.859375
-31.725 -31.93 34.881874
-31.725624 -31.82375 34.884998
-31.73 -31.714375 34.878124
-31.743126 -31.605 34.872501
-31.74375 -31.49625 34.904373
-31.736876 -31.389999 34.907501
-31.7325 -31.279375 34.878124
-31.731251 -31.166876 34.825626
-31.734375 -31.055626 34.799374
-31.72875 -30.946875 34.811874
-31.853125 -37.551876 38.903126
-31.840626 -37.434376 38.795624
-31.838751 -37.316875 38.659374
-31.8325 -37.200001 38.546249
-31.818125 -37.081249 38.420624
-31.807501 -36.964375 38.321251
-31.799999 -36.845627 38.210625
-31.794374 -36.72625 38.09375
-31.790001 -36.609375 37.995625
-31.776251 -36.493752 37.883751
-31.769375 -36.374374 37.755627
-31.764999 -36.255627 37.64875
-31.762501 -36.139374 37.559376
-31.75625 -36.025002 37.466251
-31.74 -35.91 37.401875
-31.725624 -35.794998 37.340626
-31.718124 -35.68 37.244373
-31.710625 -35.564377 37.138126
-31.705626 -35.447498 37.043125
-31.70125 -35.334373 36.970627
-31.69125 -35.220001 36.881248
-31.69375 -35.104374 36.791248
-31.693125 -34.985626 36.704376
-31.690001 -34.869373 36.607498
-31.678749 -34.755627 36.4925
-31.668751 -34.639374 36.379375
-31.661249 -34.520626 36.263748
-31.659374 -34.405624 36.145626
-31.658751 -34.288124 36.025623
-31.643126 -34.166874 35.8825
-31.631874 -34.050625 35.771252
-31.616249 -33.938751 35.696251
-31.606251 -33.821251 35.5825
-31.605 -33.705624 35.491875
-31.603125 -33.594376 35.411877
-31.599375 -33.479374 35.3325
-31.594376 -33.364376 35.240002
-31.588751 -33.250626 35.175625
-31.581249 -33.139374 35.098751
-31.576876 -33.025623 35.048126
-31.577499 -32.914375 35.019375
-31.568125 -32.80125 34.968124
-31.564375 -32.690624 34.914375
-31.563126 -32.580624 34.875626
-31.561874 -32.470001 34.859375
-31.563749 -32.357498 34.818127
-31.565001 -32.250626 34.814999
-31.571251 -32.145 34.837502
-31.57 -32.036251 34.865623
-31.567499 -31.93 34.888126
-31.571875 -31.824375 34.903751
-31.575624 -31.715626 34.910625
-31.581249 -31.608749 34.935623
-31.580626 -31.5 34.955002
-31.581875 -31.393126 34.932499
-31.578751 -31.280624 34.888748
-31.571875 -31.169374 34.859375
-31.569374 -31.059999 34.860001
-31.691875 -37.549999 38.87125
-31.685625 -37.431252 38.754375
-31.678749 -37.314999 38.626251
-31.670626 -37.19875 38.532501
-31.66 -37.080624 38.423752
-31.651875 -36.963749 38.313751
-31.641251 -36.845001 38.192501
-31.63125 -36.724998 38.075626
-31.625626 -36.606251 37.971249
-31.615625 -36.490002 37.860626
-31.610001 -36.37125 37.732498
-31.604376 -36.254375 37.627499
-31.6 -36.137501 37.546249
-31.591249 -36.024376 37.466251
-31.575001 -35.91 37.404999
-31.559376 -35.794998 37.340626
-31.546249 -35.679375 37.240623
-31.536249 -35.564999 37.138748
-31.535 -35.449375 37.05125
-31.536249 -35.334373 36.967499
-31.528749 -35.220001 36.878124
-31.533751 -35.104374 36.797501
-31.531876 -34.985001 36.701248
-31.5275 -34.8675 36.585625
-31.523125 -34.755001 36.486252
-31.514376 -34.639374 36.376251
-31.50375 -34.520626 36.251251
-31.49625 -34.404373 36.131874
-31.49 -34.286251 36.008125
-31.47625 -34.166248 35.875626
-31.469999 -34.05125 35.771252
-31.45875 -33.938751 35.68375
-31.4475 -33.820625 35.563126
-31.445625 -33.705624 35.473125
-31.445 -33.593124 35.389999
-31.441875 -33.47625 35.306873
-31.434376 -33.361874 35.220627
-31.42625 -33.25 35.165627
-31.420626 -33.138748 35.092499
-31.418751 -33.025623 35.032501
-31.418125 -32.915001 35.012501
-31.410625 -32.803123 34.977501
-31.41 -32.690624 34.916874
-31.410625 -32.580002 34.881874
-31.405624 -32.470001 34.862499
-31.401875 -32.360626 34.841251
-31.399376 -32.255001 34.858749
-31.403749 -32.14875 34.881248
-31.408751 -32.039375 34.897499
-31.410625 -31.930626 34.906876
-31.413124 -31.824375 34.91375
-31.415001 -31.716249 34.926876
-31.414375 -31.609375 34.970627
-31.41375 -31.500626 34.974377
-31.42 -31.393126 34.935623
-31.423124 -31.280624 34.888748
-31.41625 -31.170626 34.888748
-31.410625 -31.063749 34.929375
-31.536875 -37.668125 38.979374
-31.533751 -37.549374 38.853748
-31.530001 -37.43 38.7225
-31.516874 -37.314377 38.600624
-31.508751 -37.196251 38.5075
-31.5 -37.078751 38.403751
-31.490625 -36.96125 38.298126
-31.4825 -36.844376 38.181873
-31.470625 -36.724998 38.057499
-31.463751 -36.605625 37.943748
-31.455626 -36.48875 37.8325
-31.44875 -36.370625 37.710625
-31.439375 -36.255001 37.623123
-31.430626 -36.139374 37.55875
-31.4175 -36.025002 37.478748
-31.405001 -35.91 37.404999
-31.390625 -35.794376 37.327499
-31.376249 -35.677502 37.22625
-31.366249 -35.564377 37.138126
-31.36375 -35.449375 37.05125
-31.366875 -35.3325 36.959373
-31.366249 -35.219376 36.880627
-31.376249 -35.104374 36.794376
-31.376875 -34.985626 36.701248
-31.370001 -34.869999 36.595627
-31.366875 -34.758125 36.504375
-31.355625 -34.639999 36.383125
-31.341875 -34.520626 36.251251
-31.33375 -34.404999 36.135624
-31.325001 -34.28875 36.022499
-31.313126 -34.169998 35.901875
-31.308125 -34.054375 35.805
-31.299999 -33.939377 35.703125
-31.290001 -33.820625 35.575626
-31.28875 -33.705002 35.470001
-31.283751 -33.590626 35.37125
-31.276251 -33.475624 35.291248
-31.27 -33.36375 35.223751
-31.264376 -33.249374 35.150002
-31.260626 -33.136875 35.080002
-31.256874 -33.025002 35.022499
-31.255625 -32.914375 34.998123
-31.251249 -32.801876 34.967499
-31.25 -32.690624 34.9175
-31.251249 -32.580624 34.891251
-31.25 -32.471249 34.884998
-31.249374 -32.364376 34.884377
-31.248751 -32.258751 34.900623
-31.249374 -32.150002 34.903751
-31.251249 -32.040001 34.894375
-31.2575 -31.930626 34.910625
-31.261875 -31.825001 34.935623
-31.264376 -31.71875 34.955002
-31.263124 -31.610001 34.965
-31.260626 -31.5 34.94875
-31.262501 -31.391251 34.918125
-31.266874 -31.280624 34.8825
-31.263124 -31.171249 34.89875
-31.37875 -37.781876 39.035
-31.375 -37.664375 38.9375
-31.370625 -37.544998 38.809376
-31.365 -37.426876 38.68375
-31.352501 -37.313126 38.584373
-31.345625 -37.195 38.483749
-31.338751 -37.076248 38.379375
-31.326876 -36.959999 38.288124
-31.319374 -36.84375 38.178749
-31.308125 -36.724998 38.049999
-31.30125 -36.605 37.92625
-31.293751 -36.486252 37.8125
-31.283125 -36.370625 37.710625
-31.266874 -36.255001 37.626877
-31.252501 -36.139999 37.55875
-31.24625 -36.025623 37.47625
-31.239374 -35.910625 37.411877
-31.226875 -35.796249 37.350624
-31.21875 -35.68 37.256874
-31.217501 -35.56625 37.165001
-31.211876 -35.450001 37.058125
-31.209999 -35.334373 36.970627
-31.205 -35.220001 36.894375
-31.2125 -35.104374 36.807499
-31.214375 -34.985626 36.704376
-31.2075 -34.870625 36.598751
-31.205626 -34.758751 36.514374
-31.198126 -34.639999 36.4025
-31.183125 -34.521252 36.27375
-31.172501 -34.405624 36.145626
-31.165001 -34.289375 36.035625
-31.155001 -34.170624 35.921249
-31.146875 -34.055 35.818127
-31.139376 -33.939377 35.709373
-31.128124 -33.821251 35.5825
-31.127501 -33.705002 35.476875
-31.120625 -33.590626 35.374374
-31.111876 -33.475624 35.291248
-31.106251 -33.36375 35.226875
-31.101875 -33.248123 35.140625
-31.103125 -33.138126 35.09
-31.100624 -33.025623 35.032501
-31.1 -32.915001 35.012501
-31.094376 -32.803749 34.981251
-31.091249 -32.693748 34.935001
-31.093124 -32.584373 34.910625
-31.09375 -32.474377 34.906876
-31.09375 -32.365623 34.906876
-31.094376 -32.258751 34.906876
-31.094376 -32.149376 34.900623
-31.092501 -32.039375 34.888126
-31.096874 -31.930626 34.910625
-31.101875 -31.825001 34.935623
-31.1075 -31.71875 34.955002
-31.110001 -31.610001 34.961876
-31.108749 -31.500626 34.961876
-31.108126 -31.393749 34.955002
-31.106251 -31.284374 34.939377
-31.10375 -31.175625 34.949375
-31.224375 -37.903751 39.149376
-31.216875 -37.783127 39.033749
-31.218124 -37.661251 38.896252
-31.209999 -37.541248 38.764999
-31.203751 -37.424999 38.6525
-31.19375 -37.310623 38.564377
-31.184999 -37.194374 38.459373
-31.178125 -37.076248 38.363125
-31.166876 -36.959373 38.272499
-31.161249 -36.841873 38.169998
-31.151875 -36.724377 38.054375
-31.141874 -36.605 37.9375
-31.128124 -36.486874 37.823124
-31.115 -36.373123 37.748749
-31.099375 -36.256874 37.661877
-31.081875 -36.141251 37.583126
-31.0825 -36.029373 37.517502
-31.078751 -35.915627 37.466251
-31.0725 -35.802502 37.4175
-31.070625 -35.686249 37.337502
-31.073126 -35.571877 37.226875
-31.068125 -35.451874 37.081875
-31.064375 -35.335625 36.988125
-31.05875 -35.220627 36.916248
-31.061874 -35.104374 36.829376
-31.059376 -34.986252 36.71125
-31.051874 -34.870625 36.605
-31.049376 -34.758751 36.530624
-31.045 -34.641251 36.43375
-31.034374 -34.524376 36.318127
-31.02125 -34.408749 36.189377
-31.010626 -34.290001 36.071251
-30.999374 -34.171249 35.951874
-30.99 -34.055626 35.844376
-30.983126 -33.940624 35.731876
-30.968124 -33.82375 35.610626
-30.965 -33.706249 35.514374
-30.959375 -33.593124 35.409374
-30.955 -33.476875 35.31625
-30.950001 -33.364376 35.245625
-30.941875 -33.25 35.156876
-30.945 -33.139374 35.110626
-30.945 -33.025623 35.045624
-30.946251 -32.914375 35.012501
-30.9375 -32.80125 34.968124
-30.931875 -32.69125 34.920624
-30.931875 -32.584373 34.91
-30.93125 -32.474377 34.906876
-30.931875 -32.365002 34.903751
-30.934999 -32.255627 34.884998
-30.939375 -32.146252 34.872501
-30.940001 -32.036877 34.872501
-30.94375 -31.93 34.903751
-30.945 -31.824375 34.91375
-30.9475 -31.716249 34.924374
-30.952499 -31.609375 34.945625
-30.951876 -31.501249 34.96875
-30.950624 -31.395 34.974998
-30.946875 -31.286249 34.991249
-31.07 -38.016876 39.220627
-31.05875 -37.899376 39.108749
-31.059376 -37.779999 38.9925
-31.059999 -37.659374 38.864376
-31.04875 -37.540627 38.754375
-31.040625 -37.424999 38.64875
-31.03125 -37.310001 38.561249
-31.023125 -37.195 38.466251
-31.016874 -37.078751 38.390625
-31.01125 -36.960625 38.295624
-31.004999 -36.84375 38.201248
-30.986876 -36.724998 38.079376
-30.970625 -36.606251 37.958126
-30.955626 -36.490002 37.852501
-30.946251 -36.376251 37.806252
-30.938126 -36.262501 37.745625
-30.923124 -36.146873 37.674999
-30.921875 -36.034374 37.598125
-30.92 -35.919376 37.526875
-30.924376 -35.805 37.456249
-30.925625 -35.688751 37.365623
-30.93 -35.57375 37.259998
-30.93125 -35.455002 37.147499
-30.925625 -35.339375 37.044376
-30.918125 -35.223751 36.942501
-30.911249 -35.106251 36.845627
-30.905001 -34.989376 36.736874
-30.898125 -34.871876 36.627499
-30.895 -34.759998 36.546875
-30.893749 -34.643749 36.456249
-30.889376 -34.526249 36.354374
-30.875 -34.41 36.2225
-30.859375 -34.291874 36.094376
-30.843124 -34.174999 35.985001
-30.8325 -34.059376 35.888126
-30.826876 -33.944374 35.767502
-30.811251 -33.825001 35.633125
-30.804375 -33.706875 35.5275
-30.798124 -33.594376 35.418751
-30.79875 -33.479374 35.331875
-30.796875 -33.365002 35.248749
-30.785625 -33.250626 35.15625
-30.788124 -33.139374 35.099998
-30.788124 -33.025623 35.031876
-30.789375 -32.914375 34.994373
-30.783751 -32.800625 34.96125
-30.779375 -32.690624 34.916874
-30.778126 -32.583752 34.906876
-30.775625 -32.4725 34.894375
-30.775 -32.364376 34.888126
-30.776875 -32.256248 34.875626
-30.783751 -32.14875 34.885624
-30.786249 -32.040001 34.895
-30.790625 -31.93125 34.916874
-30.791876 -31.825624 34.930626
-30.7925 -31.716875 34.951874
-30.795626 -31.610624 34.975624
-30.798124 -31.504375 35.012501
-30.79875 -31.399376 35.025623
-30.795 -31.290625 35.047501
-30.921249 -38.133125 39.303123
-30.907499 -38.016876 39.216873
-30.904375 -37.896252 39.08625
-30.899376 -37.775623 38.954376
-30.895624 -37.656876 38.845001
-30.891874 -37.540627 38.754375
-30.885 -37.424999 38.6525
-30.876249 -37.310001 38.564999
-30.871876 -37.195 38.481251
-30.865 -37.079376 38.404373
-30.858126 -36.96125 38.301876
-30.845625 -36.845001 38.214375
-30.8225 -36.72625 38.109375
-30.80875 -36.610001 38.021252
-30.799376 -36.495625 37.929375
-30.788124 -36.380001 37.86375
-30.781876 -36.266251 37.810001
-30.77375 -36.153126 37.760624
-30.775625 -36.03875 37.661877
-30.776875 -35.921249 37.553749
-30.783751 -35.805 37.456249
-30.781876 -35.686249 37.338123
-30.784374 -35.571251 37.232498
-30.788124 -35.455624 37.157501
-30.782499 -35.34 37.057499
-30.77375 -35.225624 36.958752
-30.759375 -35.109375 36.880627
-30.749374 -34.993752 36.793125
-30.73875 -34.875626 36.678749
-30.735624 -34.763126 36.584373
-30.74 -34.645626 36.489376
-30.74375 -34.529373 36.41375
-30.73 -34.415001 36.2925
-30.71125 -34.298126 36.16375
-30.69375 -34.179375 36.048752
-30.68 -34.061874 35.94875
-30.67 -33.947498 35.820625
-30.653749 -33.826874 35.665627
-30.645624 -33.709373 35.546249
-30.640625 -33.595001 35.421875
-30.641874 -33.48 35.331875
-30.643126 -33.365002 35.239376
-30.635626 -33.250626 35.16375
-30.63625 -33.139374 35.114376
-30.635626 -33.025623 35.048126
-30.633751 -32.914375 35.000626
-30.625626 -32.80125 34.968124
-30.62125 -32.69125 34.923752
-30.620625 -32.584373 34.916874
-30.620001 -32.474377 34.91375
-30.620001 -32.366249 34.91375
-30.62125 -32.258751 34.914375
-30.62875 -32.151249 34.938751
-30.634375 -32.043751 34.961876
-30.641251 -31.935625 34.987499
-30.64625 -31.8325 35.0275
-30.645624 -31.723749 35.047501
-30.641251 -31.614374 35.044376
-30.640625 -31.506874 35.066875
-30.6425 -31.403126 35.08625
-30.808125 -38.375626 39.591251
-30.778749 -38.258125 39.477501
-30.761875 -38.134998 39.339375
-30.754999 -38.015625 39.214375
-30.75 -37.895 39.076248
-30.73625 -37.775623 38.947498
-30.72875 -37.658749 38.854374
-30.73 -37.543125 38.770626
-30.726875 -37.425625 38.666874
-30.719999 -37.310001 38.568748
-30.715626 -37.195 38.491249
-30.709375 -37.080002 38.419998
-30.70125 -36.964375 38.324375
-30.688749 -36.848751 38.237499
-30.670626 -36.730625 38.146873
-30.659374 -36.615623 38.095627
-30.6525 -36.502499 38.023125
-30.6425 -36.385624 37.922501
-30.639999 -36.27 37.842499
-30.635626 -36.154999 37.7775
-30.638124 -36.040001 37.678749
-30.640625 -35.924374 37.584373
-30.645624 -35.807499 37.471874
-30.639376 -35.686874 37.350624
-30.63625 -35.57375 37.250626
-30.63875 -35.458752 37.182499
-30.63125 -35.341251 37.080624
-30.62125 -35.228127 36.9925
-30.603125 -35.110626 36.897499
-30.594376 -34.994373 36.810623
-30.58375 -34.876877 36.706875
-30.577499 -34.763748 36.601875
-30.580626 -34.646252 36.503124
-30.586876 -34.53125 36.43375
-30.579374 -34.418751 36.328751
-30.5625 -34.299999 36.205624
-30.541876 -34.181252 36.090626
-30.528126 -34.064999 35.987499
-30.52 -33.950001 35.8475
-30.504999 -33.829376 35.689999
-30.49375 -33.71125 35.572498
-30.488125 -33.595001 35.428749
-30.489374 -33.48 35.335625
-30.49 -33.365002 35.256248
-30.485001 -33.250626 35.194374
-30.481251 -33.139374 35.128124
-30.474375 -33.026249 35.074375
-30.473749 -32.915627 35.041248
-30.467501 -32.804375 35.012501
-30.465 -32.694374 34.96875
-30.465 -32.585625 34.961876
-30.465 -32.47625 34.961876
-30.464375 -32.368752 34.965
-30.465626 -32.26125 34.965
-30.469999 -32.153751 34.985001
-30.474375 -32.044998 35.009377
-30.477501 -31.936251 35.022499
-30.483126 -31.83375 35.057499
-30.484375 -31.725 35.066875
-30.4825 -31.616249 35.07375
-30.48 -31.509375 35.099377
-30.47875 -31.405001 35.127499
-30.639999 -38.375626 39.581875
-30.616875 -38.258125 39.474377
-30.608126 -38.135624 39.342499
-30.598749 -38.014374 39.189377
-30.58625 -37.894375 39.050625
-30.5725 -37.774376 38.922501
-30.57 -37.65625 38.838123
-30.569374 -37.540627 38.754375
-30.563749 -37.424999 38.6525
-30.561251 -37.310623 38.571251
-30.557501 -37.195 38.50375
-30.548124 -37.080624 38.436874
-30.530624 -36.965 38.346249
-30.522499 -36.849998 38.268749
-30.52375 -36.735001 38.189999
-30.511875 -36.619373 38.130001
-30.501875 -36.505001 38.047501
-30.500626 -36.389374 37.963123
-30.501875 -36.27375 37.880001
-30.495625 -36.155624 37.787498
-30.49625 -36.040001 37.681873
-30.498125 -35.924999 37.587502
-30.497499 -35.805626 37.451248
-30.491875 -35.686874 37.356876
-30.486876 -35.575001 37.276875
-30.48875 -35.459373 37.19875
-30.478125 -35.341251 37.09
-30.464375 -35.228748 37.012501
-30.4475 -35.110626 36.919376
-30.438749 -34.994999 36.835625
-30.426874 -34.880001 36.75
-30.420626 -34.765625 36.649376
-30.418751 -34.650002 36.561874
-30.419374 -34.535625 36.48
-30.413124 -34.422501 36.372501
-30.404375 -34.301876 36.236252
-30.391251 -34.185001 36.131874
-30.384375 -34.069374 36.025623
-30.376249 -33.953125 35.884998
-30.36125 -33.831875 35.73
-30.35125 -33.713749 35.613125
-30.343124 -33.596249 35.4575
-30.340626 -33.480625 35.348751
-30.338751 -33.365623 35.268749
-30.330626 -33.251251 35.205002
-30.32375 -33.140625 35.134998
-30.317499 -33.029373 35.098751
-30.319374 -32.918751 35.074375
-30.315001 -32.806252 35.045624
-30.311251 -32.696251 35.00375
-30.310625 -32.588749 34.997501
-30.309376 -32.479374 34.997501
-30.307501 -32.37125 35.013126
-30.309376 -32.264374 35.00375
-30.311251 -32.155624 35.006874
-30.314375 -32.045624 35.023125
-30.315001 -31.936874 35.029373
-30.31625 -31.83375 35.048126
-30.316875 -31.725624 35.058125
-30.318125 -31.61875 35.095627
-30.320625 -31.51125 35.140625
-30.575624 -38.980625 40.340626
-30.558125 -38.855625 40.148125
-30.539375 -38.734375 39.986874
-30.515625 -38.615002 39.820625
-30.491875 -38.494999 39.700626
-30.471251 -38.375 39.580624
-30.453751 -38.255627 39.455624
-30.448126 -38.133751 39.313751
-30.439375 -38.01125 39.162498
-30.425625 -37.890625 39.028126
-30.41375 -37.771873 38.91
-30.414375 -37.654999 38.828751
-30.41375 -37.540001 38.751251
-30.408751 -37.425625 38.651875
-30.40625 -37.3125 38.580624
-30.398125 -37.196251 38.516876
-30.389376 -37.083126 38.464375
-30.376875 -36.966251 38.363125
-30.37125 -36.850624 38.291874
-30.375626 -36.738125 38.233749
-30.364374 -36.620625 38.150002
-30.35375 -36.505001 38.044998
-30.356874 -36.389999 37.966873
-30.358126 -36.274376 37.889999
-30.350624 -36.155624 37.803123
-30.35125 -36.041248 37.704376
-30.348749 -35.927502 37.61375
-30.34375 -35.806873 37.479374
-30.344999 -35.690624 37.398125
-30.335625 -35.578125 37.311249
-30.32625 -35.459999 37.199375
-30.31625 -35.341873 37.090626
-30.30625 -35.228748 37.006248
-30.295 -35.111252 36.926876
-30.285625 -34.99625 36.846249
-30.27125 -34.883751 36.774376
-30.263124 -34.769375 36.679375
-30.254999 -34.654373 36.595001
-30.253124 -34.53875 36.5075
-30.253124 -34.424374 36.421249
-30.249374 -34.305626 36.295624
-30.241249 -34.188751 36.18
-30.236876 -34.070625 36.051876
-30.22625 -33.954376 35.921249
-30.209999 -33.834373 35.776249
-30.198126 -33.715626 35.64875
-30.189375 -33.599377 35.495625
-30.188749 -33.484375 35.386875
-30.188126 -33.369373 35.303749
-30.18125 -33.255001 35.226875
-30.17625 -33.143749 35.157501
-30.17 -33.03125 35.128124
-30.168751 -32.920624 35.118126
-30.164375 -32.809376 35.092499
-30.16 -32.699375 35.048752
-30.158751 -32.590626 35.03875
-30.15625 -32.481251 35.032501
-30.155624 -32.375 35.064377
-30.15625 -32.268749 35.067501
-30.15625 -32.16 35.067501
-30.15625 -32.049999 35.07375
-30.15625 -31.940624 35.07375
-30.156876 -31.834999 35.076874
-30.159374 -31.72625 35.077499
-30.165001 -31.620001 35.112499
-30.169374 -31.51125 35.153751
-30.393749 -38.974998 40.272499
-30.370625 -38.849998 40.069374
-30.345625 -38.727501 39.893124
-30.328125 -38.610626 39.765625
-30.31875 -38.493752 39.670624
-30.310625 -38.375 39.564999
-30.295626 -38.254375 39.429375
-30.286875 -38.131248 39.275623
-30.280001 -38.009998 39.137501
-30.270624 -37.890625 39.028126
-30.260626 -37.77375 38.931252
-30.258751 -37.655624 38.826248
-30.254375 -37.540001 38.744373
-30.246876 -37.424374 38.645626
-30.245625 -37.310623 38.571251
-30.241875 -37.195625 38.513748
-30.235001 -37.084373 38.470627
-30.228125 -36.96875 38.375626
-30.221251 -36.851875 38.305
-30.220625 -36.73875 38.255627
-30.214375 -36.620625 38.16375
-30.206249 -36.505001 38.069374
-30.206249 -36.389999 37.973751
-30.206249 -36.274376 37.893124
-30.1975 -36.156876 37.813126
-30.195 -36.043751 37.736252
-30.193125 -35.929375 37.658127
-30.188126 -35.810001 37.529999
-30.191875 -35.694374 37.427502
-30.181875 -35.579376 37.324375
-30.168125 -35.46125 37.219376
-30.158751 -35.344376 37.124374
-30.151875 -35.23 37.033127
-30.144375 -35.114376 36.960625
-30.135 -34.999374 36.865623
-30.116875 -34.884998 36.788124
-30.106874 -34.77 36.700626
-30.096251 -34.654373 36.607498
-30.086876 -34.536877 36.499374
-30.091249 -34.424374 36.427502
-30.094376 -34.30875 36.318748
-30.089375 -34.189999 36.189999
-30.085625 -34.070625 36.05875
-30.07625 -33.954376 35.932499
-30.0625 -33.835625 35.783749
-30.0525 -33.716251 35.6525
-30.043125 -33.599998 35.505627
-30.036249 -33.485001 35.396873
-30.035 -33.369999 35.313751
-30.028126 -33.255627 35.237499
-30.02125 -33.145 35.181873
-30.015625 -33.034374 35.154373
-30.014376 -32.923752 35.147499
-30.01 -32.811249 35.12125
-30.00625 -32.701874 35.083752
-30.005625 -32.594376 35.076874
-30.005625 -32.485626 35.080624
-30.008751 -32.37875 35.118126
-30.008751 -32.271252 35.128124
-30.008125 -32.164375 35.131248
-30.004375 -32.055 35.143749
-30.00375 -31.945625 35.146873
-30.003124 -31.839375 35.143749
-30.001875 -31.730625 35.138126
-30.011875 -31.624374 35.179375
-30.215626 -38.970001 40.202499
-30.190624 -38.846249 40.033749
-30.168125 -38.72625 39.8825
-30.153749 -38.609375 39.755001
-30.15 -38.491249 39.6525
-30.153126 -38.373749 39.55125
-30.140625 -38.25375 39.422501
-30.13125 -38.130627 39.268749
-30.125 -38.009998 39.133751
-30.1175 -37.891251 39.03125
-30.105 -37.774376 38.94125
-30.099375 -37.655624 38.831875
-30.09375 -37.539375 38.729374
-30.085625 -37.421875 38.629375
-30.08375 -37.309376 38.564999
-30.08 -37.195625 38.509998
-30.076876 -37.084373 38.455624
-30.075001 -36.970001 38.378124
-30.071875 -36.854374 38.321251
-30.070625 -36.740002 38.268749
-30.065624 -36.62125 38.170624
-30.059376 -36.505627 38.083126
-30.054375 -36.389999 37.980625
-30.050625 -36.275002 37.912498
-30.043751 -36.159374 37.835625
-30.036249 -36.044998 37.766876
-30.028126 -35.929375 37.665627
-30.02 -35.810623 37.52375
-30.026251 -35.694374 37.424374
-30.02125 -35.580002 37.328125
-30.01125 -35.463749 37.243752
-29.996876 -35.346249 37.145626
-29.987499 -35.230625 37.058125
-29.9825 -35.115623 36.974377
-29.975 -35 36.871876
-29.960625 -34.884998 36.797501
-29.952499 -34.770626 36.7075
-29.939375 -34.654373 36.60125
-29.932501 -34.536877 36.49625
-29.938749 -34.424374 36.427502
-29.941875 -34.309376 36.325001
-29.9375 -34.190624 36.196877
-29.932501 -34.070625 36.058125
-29.921875 -33.955002 35.931252
-29.9125 -33.838749 35.809376
-29.900625 -33.719376 35.680626
-29.889999 -33.60125 35.53125
-29.881874 -33.485001 35.422501
-29.88125 -33.369999 35.339375
-29.871876 -33.255627 35.262501
-29.865625 -33.145626 35.215626
-29.861876 -33.035625 35.185623
-29.859375 -32.924999 35.175625
-29.856251 -32.814999 35.157501
-29.853125 -32.708126 35.146873
-29.85375 -32.599377 35.143749
-29.855625 -32.489376 35.150623
-29.859375 -32.381248 35.178749
-29.856251 -32.275623 35.201874
-29.854376 -32.169376 35.205002
-29.846251 -32.059376 35.205002
-29.844999 -31.950001 35.205002
-29.843124 -31.844376 35.208126
-29.839375 -31.735624 35.211876
-29.850624 -31.629375 35.256248
-30.041876 -38.966251 40.145
-30.018749 -38.845627 40.0275
-30.004375 -38.728127 39.918125
-29.99625 -38.610001 39.765625
-29.990625 -38.490002 39.641876
-29.987499 -38.369999 39.509998
-29.980625 -38.25 39.390625
-29.976875 -38.130001 39.261875
-29.968124 -38.010624 39.133751
-29.958124 -37.893124 39.036877
-29.943125 -37.775002 38.940624
-29.935625 -37.655624 38.831875
-29.929375 -37.539375 38.725624
-29.921875 -37.421249 38.626251
-29.919374 -37.309376 38.564999
-29.9175 -37.195625 38.506874
-29.921875 -37.083752 38.44875
-29.924376 -36.970001 38.385624
-29.926874 -36.856251 38.348751
-29.926874 -36.743126 38.304375
-29.918125 -36.625 38.21125
-29.908751 -36.508751 38.12125
-29.898125 -36.390625 38.002499
-29.893126 -36.275002 37.930626
-29.888124 -36.16 37.838749
-29.877501 -36.044998 37.755627
-29.863125 -35.929375 37.645626
-29.853125 -35.809376 37.49625
-29.859375 -35.691875 37.408127
-29.8575 -35.579376 37.334373
-29.850624 -35.465 37.276249
-29.835625 -35.348751 37.182499
-29.824375 -35.234375 37.099377
-29.817499 -35.118752 36.993752
-29.8125 -35.000626 36.871876
-29.803125 -34.885624 36.791248
-29.79875 -34.773125 36.720001
-29.790001 -34.655624 36.6175
-29.784374 -34.539375 36.514374
-29.785625 -34.424999 36.434376
-29.786249 -34.310623 36.348125
-29.786249 -34.193127 36.230625
-29.778126 -34.071251 36.081249
-29.766874 -33.955002 35.949375
-29.758751 -33.839375 35.837502
-29.74625 -33.720627 35.703751
-29.735624 -33.604374 35.560623
-29.726875 -33.486252 35.451248
-29.725 -33.37125 35.371876
-29.716875 -33.256874 35.301876
-29.714375 -33.149376 35.271252
-29.711876 -33.03875 35.231251
-29.706875 -32.92625 35.211876
-29.703125 -32.81625 35.205002
-29.695 -32.709999 35.201874
-29.696875 -32.600624 35.192501
-29.703751 -32.491249 35.205002
-29.709375 -32.384998 35.231251
-29.705 -32.282501 35.275002
-29.700624 -32.174374 35.281876
-29.6875 -32.061874 35.266251
-29.684376 -31.952499 35.266251
-29.683125 -31.848749 35.278751
-29.684376 -31.74 35.285
-29.870625 -38.965 40.137501
-29.855 -38.844376 40.0075
-29.843124 -38.724998 39.880627
-29.84 -38.608749 39.748749
-29.831249 -38.488125 39.618126
-29.817499 -38.365623 39.446251
-29.815624 -38.245625 39.326874
-29.814375 -38.12875 39.229374
-29.80125 -38.009377 39.108124
-29.793751 -37.891251 39.002499
-29.784374 -37.77375 38.912498
-29.775 -37.655624 38.811874
-29.766251 -37.53875 38.719376
-29.759375 -37.421249 38.626251
-29.75625 -37.309376 38.55875
-29.754999 -37.195 38.491249
-29.759375 -37.081249 38.43375
-29.76375 -36.970001 38.396873
-29.7675 -36.858124 38.361874
-29.77 -36.743752 38.307499
-29.759375 -36.625626 38.214375
-29.746876 -36.509377 38.120625
-29.730625 -36.390625 37.991249
-29.726875 -36.275002 37.915627
-29.723749 -36.16 37.834999
-29.715626 -36.044998 37.748749
-29.703751 -35.928749 37.635624
-29.694374 -35.806873 37.48
-29.695625 -35.690624 37.404999
-29.692499 -35.579376 37.34375
-29.690624 -35.464375 37.269375
-29.67625 -35.3475 37.174999
-29.6625 -35.235001 37.105625
-29.655001 -35.119373 37
-29.651251 -35.000626 36.87875
-29.648125 -34.885624 36.788124
