ply
format ascii 1.0
comment PCL generated
element vertex 1626
property float x
property float y
property float z
element camera 0
property float view_px
property float view_py
property float view_pz
property float x_axisx
property float x_axisy
property float x_axisz
property float y_axisx
property float y_axisy
property float y_axisz
property float z_axisx
property float z_axisy
property float z_axisz
property float focal
property float scalex
property float scaley
property float centerx
property float centery
property int viewportx
property int viewporty
property float k1
property float k2
end_header
2.4512501 -14.859375 29.903749
2.45 -14.750625 29.893749
2.4537499 -14.645 29.875
2.46 -14.539375 29.856251
2.4612501 -14.430625 29.856251
2.465625 -14.324375 29.865625
2.46875 -14.215625 29.85
2.4625001 -14.11 29.85
2.46 -14.00375 29.843124
2.4556251 -13.894375 29.820625
2.4525001 -13.785625 29.8025
2.4506249 -13.67625 29.79875
2.4506249 -13.57 29.79875
2.4512501 -13.464375 29.8025
2.45625 -13.35625 29.824375
2.463125 -13.249375 29.821251
2.464375 -13.140625 29.807501
2.461875 -13.035 29.793125
2.4649999 -12.929375 29.76
2.4649999 -12.820625 29.725624
2.461875 -12.714375 29.70125
2.45875 -12.605625 29.690001
2.4525001 -12.5 29.690001
2.4506249 -12.394375 29.686874
2.4512501 -12.285625 29.68375
2.4549999 -12.17875 29.665001
2.46 -12.06625 29.639999
2.463125 -11.959375 29.610624
2.461875 -11.850625 29.589375
2.4649999 -11.745 29.56625
2.4693749 -11.639375 29.544374
2.46875 -11.530625 29.535
2.4681251 -11.424375 29.531876
2.465625 -11.315625 29.513124
2.4681251 -11.21 29.481251
2.46875 -11.10375 29.4375
2.465625 -10.9925 29.414375
2.464375 -10.885625 29.405001
2.4606249 -10.775625 29.3675
2.4612501 -10.67 29.358126
2.4681251 -10.564375 29.3325
2.4706249 -10.455625 29.278749
2.4668751 -10.349375 29.246876
2.4681251 -10.240625 29.228125
2.464375 -10.134375 29.203125
2.4612501 -10.025625 29.18125
2.46 -9.9193754 29.168751
2.46 -9.8106251 29.168751
2.4606249 -9.7049999 29.165625
2.464375 -9.5993748 29.153126
2.464375 -9.4906254 29.159374
2.4649999 -9.3843746 29.200001
2.464375 -9.2756252 29.256874
2.4593749 -9.1700001 29.373751
2.4668751 -9.0649996 29.490625
2.47875 -8.9593754 29.57625
2.6400001 -19.106251 34.473125
2.6375 -18.98875 34.209999
2.6400001 -18.869375 33.919998
2.6431251 -18.75 33.638126
2.6412499 -18.634375 33.3825
2.6424999 -18.516251 33.169376
2.6468749 -18.404375 33.033749
2.6387501 -18.291876 32.944374
2.6368749 -18.183125 32.865002
2.6424999 -18.07 32.759377
2.650625 -17.956249 32.648125
2.64625 -17.844376 32.476875
2.639375 -17.730625 32.3325
2.6287501 -17.620001 32.19125
2.6243751 -17.508751 32.091251
2.6256249 -17.39625 31.974375
2.6312499 -17.285 31.878124
2.6331251 -17.173124 31.716249
2.628125 -17.056875 31.50625
2.6268749 -16.94375 31.294374
2.6275001 -16.829374 31.105625
2.6212499 -16.716249 30.931875
2.6156249 -16.60375 30.793751
2.6118751 -16.491875 30.671249
2.61375 -16.383751 30.58375
2.6156249 -16.27125 30.4825
2.6156249 -16.160625 30.391251
2.6168749 -16.05125 30.348749
2.61625 -15.944375 30.315001
2.6199999 -15.835625 30.250626
2.6187501 -15.725625 30.19375
2.6125 -15.61875 30.151875
2.6099999 -15.50625 30.063126
2.6175001 -15.399375 29.99
2.615 -15.29 29.96125
2.6143751 -15.18125 29.951876
2.6112499 -15.075 29.928749
2.610625 -14.965625 29.904375
2.60625 -14.859375 29.88125
2.6056249 -14.750625 29.878124
2.608125 -14.645 29.871876
2.6143751 -14.539375 29.871876
2.61625 -14.430625 29.86875
2.619375 -14.324375 29.859375
2.619375 -14.215625 29.853125
2.615 -14.11 29.86875
2.61375 -14.004375 29.86875
2.610625 -13.895625 29.853125
2.6087501 -13.78875 29.843124
2.6056249 -13.679375 29.83375
2.6043749 -13.57125 29.827499
2.605 -13.465625 29.830626
2.609375 -13.35875 29.840626
2.6143751 -13.25 29.827499
2.6112499 -13.140625 29.803125
2.608125 -13.035 29.806875
2.6131251 -12.929375 29.786249
2.6187501 -12.820625 29.741875
2.6168749 -12.714375 29.711876
2.6125 -12.605625 29.69375
2.605 -12.5 29.69375
2.6031251 -12.394375 29.690001
2.60375 -12.285625 29.686874
2.6068749 -12.17875 29.665001
2.6112499 -12.06625 29.639999
2.6156249 -11.959375 29.618126
2.61625 -11.850625 29.6075
2.619375 -11.745 29.5825
2.6231251 -11.639375 29.556875
2.6212499 -11.530625 29.54125
2.6199999 -11.424375 29.535
2.6168749 -11.315625 29.513124
2.6199999 -11.21 29.484375
2.620625 -11.104375 29.440624
2.619375 -10.995 29.426874
2.619375 -10.8875 29.4175
2.6156249 -10.77625 29.379999
2.61625 -10.67 29.370625
2.6243751 -10.564375 29.341875
2.6275001 -10.455625 29.281876
2.62375 -10.349375 29.25
2.6231251 -10.240625 29.240625
2.6199999 -10.134375 29.21875
2.6187501 -10.025625 29.18125
2.6156249 -9.9193754 29.15625
2.615 -9.8106251 29.153126
2.61625 -9.7049999 29.153126
2.6224999 -9.5987501 29.149376
2.6212499 -9.4906254 29.174999
2.620625 -9.3843746 29.215626
2.62375 -9.2756252 29.256874
2.625 -9.1700001 29.358126
2.6324999 -9.0649996 29.465626
2.63625 -8.9593754 29.563749
2.79375 -19.104376 34.430626
2.7943749 -18.985624 34.143749
2.796875 -18.865625 33.858749
2.8018751 -18.746876 33.603127
2.805625 -18.633125 33.360001
2.8074999 -18.516251 33.143124
2.8087499 -18.404375 32.999374
2.80125 -18.290625 32.896873
2.798125 -18.180626 32.807499
2.7974999 -18.06875 32.709373
2.8018751 -17.955626 32.609375
2.7987499 -17.844376 32.448124
2.7931249 -17.73 32.289375
2.7831249 -17.61875 32.135624
2.778125 -17.50625 32.025623
2.774375 -17.393749 31.901251
2.774375 -17.28125 31.786249
2.7725 -17.169374 31.623751
2.77 -17.054375 31.414375
2.7706251 -16.940001 31.203751
2.77125 -16.825624 31.0075
2.7674999 -16.713751 30.848749
2.7637501 -16.60125 30.721251
2.7606249 -16.490625 30.609375
2.7662499 -16.383125 30.52375
2.7725 -16.27 30.42625
2.77 -16.16 30.348749
2.77 -16.050625 30.30875
2.77125 -15.944375 30.28875
2.776875 -15.835 30.241249
2.7737501 -15.725625 30.171875
2.765625 -15.618125 30.126249
2.76 -15.50625 30.047501
2.7674999 -15.399375 29.983749
2.7674999 -15.29 29.955
2.7693751 -15.180625 29.929375
2.7674999 -15.074375 29.891874
2.766875 -14.965625 29.88125
2.7662499 -14.859375 29.878124
2.766875 -14.750625 29.875
2.77 -14.645 29.862499
2.775625 -14.539375 29.875
2.7750001 -14.430625 29.875
2.7737501 -14.324375 29.86875
2.7706251 -14.215625 29.859375
2.766875 -14.11 29.875
2.766875 -14.004375 29.881874
2.7662499 -13.895625 29.87875
2.7650001 -13.789375 29.878124
2.76 -13.680625 29.884375
2.755625 -13.574375 29.871876
2.7562499 -13.468125 29.862499
2.7606249 -13.36 29.853125
2.7674999 -13.25 29.836876
2.765625 -13.140625 29.786249
2.7662499 -13.035 29.776875
2.7731249 -12.929375 29.76375
2.7793751 -12.820625 29.721874
2.7825 -12.714375 29.694374
2.7831249 -12.605625 29.6975
2.7787499 -12.5 29.70875
2.7750001 -12.394375 29.69375
2.7731249 -12.285625 29.68375
2.77125 -12.17875 29.665001
2.7718749 -12.066875 29.643126
2.7750001 -11.959375 29.62125
2.774375 -11.850625 29.61125
2.7731249 -11.745 29.5825
2.775625 -11.639375 29.563126
2.775625 -11.530625 29.556875
2.7750001 -11.424375 29.553749
2.7718749 -11.315625 29.531876
2.7750001 -11.21 29.50375
2.7750001 -11.104375 29.45875
2.7725 -10.995 29.430626
2.774375 -10.885625 29.405001
2.7718749 -10.775625 29.364374
2.7718749 -10.67 29.351875
2.778125 -10.564375 29.329374
2.7787499 -10.455625 29.275625
2.7718749 -10.349375 29.234375
2.77125 -10.240625 29.225
2.77125 -10.134375 29.21875
2.7737501 -10.025625 29.190624
2.77 -9.9193754 29.15625
2.7693751 -9.8106251 29.15
2.7706251 -9.7043753 29.14625
2.7774999 -9.5962496 29.134375
2.778125 -9.4899998 29.168125
2.7762499 -9.3843746 29.200001
2.7793751 -9.2756252 29.241249
2.784375 -9.1700001 29.351875
2.7925 -9.0649996 29.459375
2.79375 -8.9593754 29.560625
2.9512501 -19.101875 34.386875
2.9549999 -18.984375 34.089375
2.9593749 -18.864374 33.801876
2.9668751 -18.745625 33.543125
2.97 -18.630625 33.303123
2.9675 -18.514999 33.110626
2.9675 -18.403749 32.966873
2.9606249 -18.290001 32.861252
2.95625 -18.179375 32.759377
2.95875 -18.06625 32.654373
2.9662499 -17.954374 32.549999
2.9712501 -17.843124 32.412498
2.9668751 -17.726875 32.25375
2.951875 -17.615625 32.089375
2.940625 -17.50375 31.969999
2.9349999 -17.391251 31.838125
2.92875 -17.278749 31.700001
2.9200001 -16.934999 31.068125
2.9224999 -16.821251 30.887501
2.9212501 -16.710625 30.765625
2.9112501 -16.599375 30.654375
2.9087501 -16.489374 30.536249
2.91875 -16.379999 30.45125
2.92625 -16.266874 30.36125
2.9212501 -16.159374 30.30875
2.921875 -16.050625 30.291876
2.925 -15.94375 30.27
2.9281249 -15.835 30.221874
2.9200001 -15.724375 30.139376
2.9112501 -15.615625 30.092501
2.9124999 -15.505625 30.046875
2.920625 -15.399375 29.986876
2.9243751 -15.29 29.958124
2.9293749 -15.180625 29.932501
2.9324999 -15.074375 29.904375
2.9337499 -14.965625 29.903749
2.934375 -14.859375 29.900625
2.9349999 -14.750625 29.893749
2.9368751 -14.645 29.88125
2.940625 -14.539375 29.894375
2.9349999 -14.430625 29.888124
2.9275 -14.324375 29.885
2.925 -14.215625 29.881874
2.925 -14.11 29.901251
2.9275 -14.004375 29.919374
2.9275 -13.895625 29.919374
2.9237499 -13.789375 29.904375
2.915 -13.680625 29.900625
2.9081249 -13.574375 29.875
2.909375 -13.466875 29.859375
2.911875 -13.359375 29.853125
2.9193749 -13.250625 29.846251
2.920625 -13.140625 29.799376
2.9243751 -13.035 29.773125
2.9300001 -12.929375 29.747499
2.9356251 -12.820625 29.704374
2.940625 -12.714375 29.688126
2.9468751 -12.605625 29.709375
2.9481249 -12.5 29.716249
2.9437499 -12.394375 29.690624
2.9400001 -12.285625 29.671249
2.9375 -12.17875 29.661875
2.9375 -12.06875 29.655624
2.9381249 -11.96 29.634375
2.9356251 -11.850625 29.611876
2.934375 -11.745 29.577499
2.934375 -11.639375 29.563749
2.9337499 -11.530625 29.560625
2.933125 -11.424375 29.557501
2.9300001 -11.315625 29.535625
2.933125 -11.21 29.5075
2.933125 -11.104375 29.463125
2.9312501 -10.995 29.43125
2.934375 -10.885 29.4025
2.933125 -10.775625 29.361876
2.9300001 -10.67 29.34
2.930625 -10.564375 29.320625
2.9293749 -10.455625 29.273125
2.923125 -10.349375 29.22875
2.9243751 -10.240625 29.209999
2.925 -10.134375 29.200624
2.9275 -10.025625 29.178749
2.921875 -9.9187498 29.15
2.920625 -9.8106251 29.146875
2.9212501 -9.7043753 29.143126
2.92625 -9.5962496 29.131874
2.9293749 -9.4899998 29.153126
2.9293749 -9.3843746 29.181875
2.9312501 -9.2756252 29.23875
2.93625 -9.1700001 29.355625
2.944375 -9.0649996 29.469376
3.10625 -19.100624 34.344376
3.110625 -18.983126 34.053749
3.115 -18.861876 33.772499
3.1199999 -18.744375 33.516251
3.1224999 -18.62875 33.268124
3.12375 -18.511875 33.068748
3.125 -18.4 32.91
3.1187501 -18.286875 32.804375
3.1112499 -18.178125 32.702499
3.1099999 -18.064375 32.59375
3.1175001 -17.950624 32.482498
3.130625 -17.84 32.358749
3.13625 -17.725624 32.205624
3.128125 -17.61375 32.047501
3.118125 -17.501249 31.91375
3.109375 -17.38875 31.76375
3.0987501 -17.275 31.595625
3.0699999 -16.93125 30.960625
3.0662501 -16.819374 30.803749
3.066875 -16.70875 30.689375
3.0587499 -16.596251 30.580626
3.0625 -16.485624 30.46125
3.0706251 -16.378124 30.39625
3.0756249 -16.266251 30.330626
3.07375 -16.159374 30.30125
3.0787499 -16.049999 30.289375
3.0799999 -15.94125 30.238125
3.079375 -15.833125 30.153126
3.0731249 -15.721875 30.080626
3.07125 -15.614375 30.060625
3.0775001 -15.505625 30.034374
3.0799999 -15.399375 29.987499
3.08125 -15.29 29.974375
3.0856249 -15.180625 29.952499
3.090625 -15.074375 29.933125
3.0956249 -14.96625 29.945625
3.0999999 -14.859375 29.929375
3.1025 -14.750625 29.908125
3.1018751 -14.645 29.908125
3.099375 -14.539375 29.932501
3.09375 -14.430625 29.945625
3.085 -14.324375 29.945625
3.0799999 -14.215625 29.933125
3.079375 -14.11 29.933125
3.0799999 -14.004375 29.930626
3.0799999 -13.895625 29.930626
3.078125 -13.789375 29.926874
3.0718751 -13.680625 29.923124
3.066875 -13.575 29.885626
3.0675001 -13.46875 29.872499
3.0687499 -13.360625 29.869375
3.075 -13.2525 29.863125
3.0775001 -13.14125 29.824375
3.0806251 -13.035 29.793125
3.0856249 -12.929375 29.770624
3.0918751 -12.820625 29.748125
3.0956249 -12.714375 29.735624
3.1012499 -12.605625 29.726875
3.1056249 -12.5 29.716875
3.1025 -12.394375 29.69125
3.098125 -12.285 29.665625
3.0912499 -12.175625 29.646875
3.090625 -12.06625 29.641251
3.09375 -11.959375 29.625
3.0943749 -11.850625 29.622499
3.09375 -11.745 29.611876
3.0899999 -11.639375 29.590626
3.0856249 -11.530625 29.567499
3.0843749 -11.424375 29.561251
3.08125 -11.315625 29.539375
3.085 -11.21 29.508125
3.086875 -11.104375 29.466875
3.0887499 -10.995 29.434999
3.0925 -10.885 29.409374
3.0899999 -10.775625 29.378124
3.0856249 -10.67 29.35
3.085 -10.564375 29.308125
3.0843749 -10.455625 29.258125
3.0799999 -10.349375 29.229376
3.079375 -10.240625 29.219999
3.076875 -10.134375 29.20125
3.0787499 -10.025 29.172501
3.0756249 -9.9162502 29.131874
3.075 -9.8100004 29.125
3.0756249 -9.7049999 29.12875
3.079375 -9.5981255 29.143126
3.08125 -9.4906254 29.160625
3.0806251 -9.3843746 29.191875
3.0831251 -9.2756252 29.264999
3.0899999 -9.1706247 29.384375
3.0962501 -9.0649996 29.501249
3.2618749 -19.219376 34.569374
3.2631249 -19.099375 34.290001
3.2681251 -18.980625 33.993752
3.2706251 -18.860001 33.71875
3.275625 -18.741249 33.459373
3.278125 -18.625626 33.212502
3.2806251 -18.510626 33.012501
3.2825 -18.39875 32.858124
3.2762499 -18.285 32.734375
3.2650001 -18.174376 32.618752
3.2581251 -18.060625 32.499374
3.2625 -17.946875 32.377499
3.2762499 -17.838125 32.276249
3.29125 -17.724375 32.133125
3.2918749 -17.61125 31.976875
3.286875 -17.498751 31.834375
3.278125 -17.385626 31.674999
3.265625 -17.270624 31.475
3.255625 -17.155001 31.24625
3.2362499 -17.040625 31.040001
3.2212501 -16.928749 30.889376
3.2112501 -16.81625 30.748125
3.2125001 -16.705 30.616875
3.213125 -16.59375 30.505625
3.225625 -16.481874 30.401251
3.2306249 -16.375 30.359375
3.2349999 -16.265625 30.324375
3.234375 -16.159374 30.311874
3.2368751 -16.049376 30.281876
3.2349999 -15.94 30.213751
3.234375 -15.830625 30.125
3.2337501 -15.720625 30.07375
3.2337501 -15.614375 30.060625
3.23875 -15.505625 30.029375
3.24 -15.399375 29.990625
3.2406249 -15.29 29.981251
3.2449999 -15.180625 29.959375
3.2506249 -15.075625 29.950001
3.2593751 -14.96875 29.975
3.2625 -14.860625 29.959375
3.2606249 -14.75125 29.943125
3.2562499 -14.645625 29.95875
3.25125 -14.54 29.985001
3.2474999 -14.43125 29.984375
3.2393751 -14.325 29.988125
3.2318749 -14.21625 29.981251
3.2306249 -14.110625 29.975
3.2306249 -14.004375 29.94375
3.2306249 -13.895625 29.9375
3.23125 -13.789375 29.940624
3.2337501 -13.680625 29.946251
3.234375 -13.575 29.911875
3.2368751 -13.469375 29.8825
3.2375 -13.359375 29.8575
3.23875 -13.250625 29.854376
3.2406249 -13.14125 29.831875
3.24 -13.035 29.806875
3.2393751 -12.929375 29.803125
3.2418749 -12.820625 29.796875
3.24875 -12.714375 29.77125
3.253125 -12.605625 29.74625
3.25125 -12.5 29.723749
3.2474999 -12.394375 29.695
3.2481251 -12.285 29.669374
3.2425001 -12.175625 29.650625
3.2418749 -12.06625 29.644375
3.245625 -11.959375 29.629375
3.24875 -11.850625 29.63875
3.2493751 -11.745 29.635626
3.244375 -11.639375 29.608749
3.2375 -11.530625 29.571875
3.235625 -11.424375 29.561874
3.233125 -11.315625 29.536875
3.2393751 -11.21 29.499374
3.243125 -11.104375 29.467501
3.2418749 -10.995 29.439375
3.245625 -10.885625 29.41
3.2437501 -10.775625 29.366249
3.24 -10.67 29.334375
3.24 -10.564375 29.288124
3.2393751 -10.455625 29.239374
3.235625 -10.349375 29.214375
3.2349999 -10.240625 29.205
3.23125 -10.134375 29.183125
3.23125 -10.025 29.154375
3.2306249 -9.9156246 29.110001
3.2306249 -9.8100004 29.103125
3.23125 -9.7043753 29.106251
3.2349999 -9.5962496 29.129375
3.2368751 -9.4899998 29.173124
3.23125 -9.3843746 29.224375
3.2306249 -9.2762499 29.305626
3.243125 -9.1731253 29.407499
3.2518749 -9.0656252 29.518126
3.4268751 -19.218124 34.540001
3.4275 -19.096874 34.233749
3.4256251 -18.97875 33.948124
3.42625 -18.859375 33.682499
3.4324999 -18.74 33.414375
3.4324999 -18.625 33.165627
3.4349999 -18.509375 32.963123
3.43875 -18.395624 32.7925
3.4356251 -18.28125 32.638748
3.420625 -18.17 32.509998
3.40625 -18.05875 32.411877
3.400625 -17.945 32.293125
3.415 -17.834375 32.19875
3.434375 -17.720625 32.063751
3.4393749 -17.608126 31.894375
3.4400001 -17.495625 31.73625
3.43625 -17.383125 31.566875
3.4237499 -17.268126 31.360624
3.4124999 -17.150625 31.125626
3.39375 -17.036249 30.935625
3.380625 -16.925625 30.805626
3.37375 -16.813749 30.701876
3.37375 -16.70125 30.563126
3.3743751 -16.590626 30.461876
3.38375 -16.480625 30.401251
3.389375 -16.374374 30.372499
3.3943751 -16.265625 30.325001
3.3900001 -16.158125 30.28875
3.38625 -16.046875 30.227501
3.3856249 -15.939375 30.171875
3.3875 -15.83 30.11875
3.389375 -15.720625 30.086876
3.3887501 -15.614375 30.064375
3.395 -15.505625 30.02375
3.399375 -15.399375 29.994375
3.400625 -15.29 29.988125
3.405 -15.181875 29.9725
3.4112501 -15.078125 29.97875
3.4200001 -14.970625 30.00375
3.4200001 -14.86375 29.991875
3.41875 -14.755 29.991875
3.4143751 -14.649375 30.014376
3.405 -14.54375 30.038124
3.3968749 -14.434375 30.014376
3.390625 -14.32875 30.021875
3.38625 -14.22 30.010626
3.3856249 -14.11375 30.000626
3.3856249 -14.005 29.969376
3.3856249 -13.89625 29.963125
3.3875 -13.789375 29.959999
3.3931251 -13.680625 29.963125
3.3943751 -13.575 29.949375
3.3943751 -13.46875 29.90625
3.3931251 -13.3575 29.851875
3.389375 -13.25 29.851875
3.3912499 -13.14375 29.851875
3.3943751 -13.035625 29.835625
3.3924999 -12.929375 29.844999
3.3931251 -12.820625 29.838125
3.399375 -12.714375 29.785
3.4037499 -12.605625 29.75
3.4000001 -12.5 29.724375
3.39625 -12.394375 29.695625
3.3987501 -12.285625 29.67625
3.3981249 -12.17875 29.67
3.3987501 -12.069375 29.66375
3.399375 -11.96 29.645
3.400625 -11.850625 29.641874
3.403125 -11.745 29.622499
3.400625 -11.639375 29.594376
3.39625 -11.530625 29.571251
3.395 -11.424375 29.565001
3.391875 -11.315625 29.543125
3.39625 -11.21 29.514999
3.399375 -11.104375 29.486876
3.3975 -10.995625 29.460625
3.4024999 -10.888125 29.42625
3.3968749 -10.77625 29.366249
3.3924999 -10.67 29.334999
3.3943751 -10.564375 29.305626
3.395 -10.455625 29.255625
3.3912499 -10.349375 29.223749
3.3924999 -10.240625 29.205
3.3887501 -10.134375 29.18
3.3887501 -10.025 29.151251
3.389375 -9.9156246 29.110001
3.389375 -9.8100004 29.103125
3.3900001 -9.7043753 29.1
3.390625 -9.5956249 29.110001
3.3900001 -9.4899998 29.153749
3.38625 -9.3843746 29.211876
3.3868749 -9.2762499 29.305626
3.39625 -9.1737499 29.410625
3.4037499 -9.0656252 29.52125
3.585 -19.215 34.504375
3.585 -19.094999 34.19125
3.5818751 -18.975624 33.891876
3.5818751 -18.855625 33.619373
3.5887499 -18.736876 33.35125
3.589375 -18.623125 33.106876
3.5899999 -18.506874 32.904373
3.5899999 -18.393749 32.733749
3.5875001 -18.279375 32.576248
3.5756249 -18.165625 32.435623
3.559375 -18.054375 32.333752
3.545625 -17.94125 32.212502
3.5518751 -17.829374 32.105
3.5675001 -17.715 31.964375
3.579375 -17.601875 31.793751
3.5862501 -17.489374 31.624374
3.5831251 -17.375626 31.43125
3.569375 -17.260626 31.236876
3.556875 -17.145624 31.0275
3.54125 -17.034374 30.852501
3.5337501 -16.92375 30.725624
3.53 -16.811251 30.626875
3.534375 -16.700001 30.494375
3.5406251 -16.589375 30.414375
3.54125 -16.480625 30.38625
3.54125 -16.374374 30.370001
3.5425 -16.264999 30.303125
3.5387499 -16.155624 30.24
3.536875 -16.045626 30.178125
3.54 -15.939375 30.144375
3.5462501 -15.83 30.115
3.5487499 -15.720625 30.093124
3.5487499 -15.614375 30.08375
3.55375 -15.505625 30.057501
3.558125 -15.399375 30.032499
3.5606251 -15.290625 30.029375
3.5643749 -15.184375 30.006874
3.5687499 -15.079375 29.997499
3.569375 -14.970625 30.026251
3.5706251 -14.864375 30.03875
3.5731249 -14.755625 30.051874
3.57125 -14.65 30.055
3.5599999 -14.54375 30.039375
3.5506251 -14.433125 30.001249
3.545625 -14.32875 30.014376
3.5443749 -14.220625 30.01375
3.5443749 -14.114375 30.01375
3.54375 -14.005625 30.00375
3.5443749 -13.89875 30.000626
3.5474999 -13.79 29.985001
3.55 -13.680625 29.97875
3.5493751 -13.575 29.975624
3.545625 -13.469375 29.943125
3.5406251 -13.359375 29.883751
3.535625 -13.25125 29.8675
3.54125 -13.144375 29.873751
3.55125 -13.03625 29.858126
3.5543749 -12.929375 29.855
3.5543749 -12.82125 29.85125
3.5525 -12.715 29.807501
3.5525 -12.605625 29.75625
3.55125 -12.5 29.724375
3.5474999 -12.394375 29.702499
3.5474999 -12.285625 29.695625
3.548125 -12.179375 29.692499
3.55125 -12.07 29.673124
3.5525 -11.960625 29.651251
3.5518751 -11.850625 29.641874
3.5562501 -11.745 29.619375
3.5587499 -11.639375 29.5975
3.5587499 -11.530625 29.590626
3.558125 -11.424375 29.5875
3.555625 -11.315625 29.561874
3.558125 -11.21 29.536875
3.5587499 -11.104375 29.49625
3.5574999 -10.995625 29.464375
3.56125 -10.888125 29.42625
3.555625 -10.77625 29.366249
3.5506251 -10.67 29.338125
3.5506251 -10.564375 29.31875
3.5525 -10.455625 29.255625
3.546875 -10.349375 29.214375
3.5450001 -10.240625 29.201876
3.5387499 -10.134375 29.18
3.54125 -10.025 29.154375
3.5443749 -9.9156246 29.122499
3.545625 -9.8100004 29.115625
3.5493751 -9.7037497 29.1
3.5493751 -9.5956249 29.1
3.546875 -9.4899998 29.13625
3.545625 -9.3843746 29.188749
3.5493751 -9.2762499 29.2875
3.55375 -9.1737499 29.41
3.5587499 -9.0656252 29.536875
3.7481251 -19.214375 34.450001
3.745625 -19.094376 34.150623
3.7437501 -18.975 33.871876
3.7406249 -18.855 33.602501
3.744375 -18.735624 33.318748
3.745625 -18.620625 33.066875
3.7449999 -18.504999 32.865002
3.74125 -18.389999 32.684376
3.73875 -18.275625 32.524376
3.7337501 -18.161249 32.387501
3.7193749 -18.050625 32.2575
3.704375 -17.938749 32.126877
3.7012501 -17.825001 32.003124
3.71 -17.710625 31.84375
3.72 -17.598125 31.673124
3.7249999 -17.485001 31.497499
3.721875 -17.370001 31.294374
3.70625 -17.254999 31.10375
3.691875 -17.141251 30.91
3.683125 -17.030001 30.754375
3.6800001 -16.920626 30.636875
3.6781249 -16.809376 30.538124
3.6868751 -16.69875 30.440001
3.6981249 -16.586876 30.385626
3.6993749 -16.48 30.376249
3.6993749 -16.374374 30.356874
3.69625 -16.264376 30.27125
3.68875 -16.155001 30.184999
3.6893749 -16.045626 30.144375
3.6912501 -15.93875 30.133751
3.6968751 -15.83 30.111876
3.7012501 -15.720625 30.093124
3.7025001 -15.614375 30.086876
3.70625 -15.505625 30.067499
3.711875 -15.399375 30.046249
3.7181251 -15.290625 30.056875
3.7212501 -15.185 30.036249
3.721875 -15.079375 30.013124
3.715625 -14.970625 30.035625
3.71875 -14.864375 30.055
3.72 -14.755625 30.058125
3.7181251 -14.65 30.05875
3.7106249 -14.544375 30.039375
3.7049999 -14.435 30.018126
3.7012501 -14.329375 30.035625
3.7006249 -14.220625 30.039375
3.7 -14.114375 30.035625
3.69625 -14.00625 30.0175
3.69625 -13.899375 30.010626
3.7006249 -13.79 29.988125
3.704375 -13.680625 29.969376
3.704375 -13.575 29.963125
3.7006249 -13.469375 29.94375
3.6956251 -13.360625 29.915625
3.693125 -13.25375 29.905624
3.6956251 -13.145625 29.9025
3.701875 -13.03875 29.883751
3.711875 -12.93125 29.864374
3.7162499 -12.824375 29.873751
3.7081251 -12.718125 29.856874
3.6993749 -12.60625 29.775625
3.70625 -12.5 29.727501
3.70875 -12.394375 29.724375
3.7093749 -12.285625 29.721251
3.71 -12.179375 29.717501
3.7149999 -12.070625 29.696251
3.7162499 -11.963125 29.67
3.711875 -11.851875 29.648125
3.7137499 -11.745 29.626249
3.7149999 -11.639375 29.619375
3.7149999 -11.530625 29.619375
3.715625 -11.424375 29.609375
3.7149999 -11.315625 29.571875
3.7149999 -11.21 29.5525
3.715625 -11.104375 29.505625
3.7162499 -10.995 29.460625
3.715625 -10.885625 29.41375
3.713125 -10.775625 29.363125
3.70875 -10.67 29.334999
3.7068751 -10.564375 29.30625
3.70875 -10.455625 29.243126
3.704375 -10.349375 29.208124
3.7025001 -10.240625 29.19875
3.69625 -10.134375 29.176874
3.69875 -10.024375 29.147499
3.7006249 -9.9156246 29.106874
3.701875 -9.8087502 29.096874
3.7075 -9.7012501 29.081249
3.70875 -9.5950003 29.088125
3.7075 -9.4893751 29.134375
3.7056251 -9.3843746 29.186251
3.7075 -9.2762499 29.2775
3.70625 -9.1731253 29.403749
3.71 -9.0662498 29.549999
3.9081249 -19.2125 34.4025
3.905 -19.091875 34.1175
3.9024999 -18.973749 33.842499
3.8975 -18.854376 33.571251
3.900625 -18.735624 33.295624
3.9037499 -18.620001 33.050625
3.9037499 -18.50375 32.839375
3.901875 -18.386875 32.6325
3.9043751 -18.27375 32.451874
3.9043751 -18.16 32.311249
3.8975 -18.04875 32.1525
3.88375 -17.934999 32
3.869375 -17.82 31.85
3.8625 -17.705 31.686251
3.8643751 -17.591875 31.513124
3.86375 -17.479376 31.339375
3.8587501 -17.365 31.1425
3.845 -17.250626 30.959999
3.8356249 -17.13875 30.79875
3.8343749 -17.026875 30.668751
3.8318751 -16.918125 30.547501
3.8331251 -16.80625 30.4625
3.8443749 -16.695625 30.400625
3.8543749 -16.585625 30.354376
3.855 -16.48 30.338125
3.85375 -16.373125 30.299376
3.8475001 -16.261875 30.226875
3.8418751 -16.154375 30.150625
3.8456249 -16.045 30.12125
3.8475001 -15.93625 30.115
3.8543749 -15.829375 30.099375
3.8618751 -15.720625 30.09
3.8631251 -15.614375 30.09
3.8643751 -15.505625 30.08375
3.869375 -15.399375 30.070625
3.8756249 -15.290625 30.080626
3.8787501 -15.185 30.057501
3.8768749 -15.079375 30.026875
3.8712499 -14.970625 30.039375
3.8699999 -14.864375 30.045
3.86625 -14.755625 30.03125
3.8625 -14.65 30.045626
3.8599999 -14.544375 30.043125
3.859375 -14.435625 30.0425
3.8587501 -14.329375 30.05875
3.858125 -14.220625 30.065001
3.8575001 -14.115 30.065001
3.8525 -14.00875 30.045626
3.8512499 -13.9 30.035625
3.855 -13.790625 30.01125
3.859375 -13.68125 29.988125
3.860625 -13.575625 29.98875
3.8587501 -13.469375 29.985624
3.8518751 -13.360625 29.975
3.8487501 -13.254375 29.953125
3.8512499 -13.145625 29.934376
3.85375 -13.04 29.921249
3.8618751 -12.93375 29.883751
3.8675001 -12.825625 29.879999
3.8599999 -12.71875 29.86375
3.8462501 -12.60625 29.768749
3.85625 -12.5 29.719376
3.8643751 -12.394375 29.74
3.8687501 -12.285625 29.731251
3.8712499 -12.179375 29.731251
3.8768749 -12.070625 29.720625
3.875 -11.964375 29.689375
3.8699999 -11.85375 29.66375
3.8699999 -11.745625 29.645
3.8699999 -11.639375 29.641874
3.869375 -11.530625 29.635626
3.871875 -11.424375 29.616249
3.8724999 -11.315625 29.565624
3.8699999 -11.21 29.536875
3.8687501 -11.104375 29.476875
3.86625 -10.995 29.439375
3.8643751 -10.885 29.403749
3.8643751 -10.775625 29.363125
3.8612499 -10.67 29.334999
3.8631251 -10.564375 29.30625
3.8625 -10.455625 29.249374
3.85625 -10.349375 29.208124
3.8543749 -10.240625 29.183125
3.850625 -10.13375 29.157499
3.8543749 -10.021875 29.126249
3.858125 -9.9143753 29.084375
3.8587501 -9.8062496 29.078125
3.8599999 -9.6999998 29.075001
3.8599999 -9.5943747 29.075001
3.8599999 -9.4868746 29.094999
3.859375 -9.38375 29.157499
3.8599999 -9.2756252 29.24625
3.8568749 -9.1706247 29.375626
3.8643751 -9.0656252 29.553125
4.0643749 -19.209999 34.376251
4.0593748 -19.09 34.080002
4.055625 -18.969999 33.778751
4.0543752 -18.85125 33.5075
4.058125 -18.734375 33.258125
4.0606251 -18.619375 33.026875
4.0606251 -18.501249 32.801876
4.0643749 -18.384375 32.578751
4.0718751 -18.270624 32.37875
4.07375 -18.15625 32.221874
4.0718751 -18.044374 32.031876
4.058125 -17.93 31.869375
4.035625 -17.815001 31.708124
4.0174999 -17.700624 31.548124
4.0106249 -17.588125 31.365
4.0025001 -17.475 31.188749
3.9962499 -17.360001 31.004999
3.99 -17.24625 30.827499
3.9925001 -17.135 30.690624
3.994375 -17.024376 30.600624
3.99125 -16.915625 30.488125
3.9949999 -16.804375 30.406876
4.004375 -16.695 30.354376
4.0100002 -16.585625 30.3025
4.00875 -16.47875 30.27375
4.0093751 -16.370625 30.249374
4.0062499 -16.260626 30.209999
4.0025001 -16.154375 30.146875
4.0075002 -16.045 30.12125
4.00875 -15.93625 30.118126
4.0106249 -15.83 30.111876
4.015625 -15.72125 30.099375
4.0162501 -15.615 30.096251
4.0174999 -15.50625 30.096251
4.0250001 -15.399375 30.09
4.0331249 -15.290625 30.086876
4.038125 -15.185 30.068125
4.0374999 -15.079375 30.061251
4.0324998 -14.970625 30.08625
4.0250001 -14.864375 30.0875
4.0193748 -14.75625 30.077499
4.0149999 -14.650625 30.0875
4.0118752 -14.544375 30.078125
4.0100002 -14.435625 30.068125
4.0093751 -14.329375 30.074375
4.0075002 -14.220625 30.09
4.0106249 -14.115 30.106251
4.0118752 -14.009375 30.08375
4.0106249 -13.900625 30.061874
4.01125 -13.79375 30.035625
4.0168748 -13.685 30.018126
4.02 -13.57875 30.029375
4.02 -13.47 30.025625
4.0162501 -13.360625 30.004375
4.0181251 -13.254375 29.973125
4.0206251 -13.145625 29.94125
4.0206251 -13.04 29.928125
4.0206251 -12.934375 29.886875
4.0225 -12.825 29.876875
4.0174999 -12.718125 29.86375
4.0062499 -12.60625 29.797501
4.0143752 -12.5 29.755625
4.0206251 -12.394375 29.765625
4.0256252 -12.285625 29.753124
4.0293751 -12.179375 29.759375
4.0337501 -12.070625 29.736876
4.0300002 -11.96375 29.683125
4.0256252 -11.8525 29.654375
4.0250001 -11.745625 29.648125
4.0231252 -11.639375 29.641874
4.0168748 -11.530625 29.626249
4.0168748 -11.424375 29.610001
4.02 -11.315625 29.553125
4.0193748 -11.21 29.5275
4.0187502 -11.104375 29.470625
4.0143752 -10.995 29.432501
4.0124998 -10.885 29.388124
4.0137501 -10.775625 29.35375
4.01125 -10.67 29.328125
4.0137501 -10.564375 29.296249
4.01125 -10.455625 29.236876
4.0056248 -10.349375 29.201876
4.0050001 -10.240625 29.176874
4.0018749 -10.133125 29.150625
4.0056248 -10.02125 29.119375
4.0106249 -9.9143753 29.081249
4.01125 -9.805625 29.075001
4.01125 -9.6999998 29.075001
4.01125 -9.5943747 29.075001
4.0100002 -9.4868746 29.088125
4.01125 -9.38375 29.160625
4.0124998 -9.2756252 29.252501
4.00875 -9.1700001 29.366249
4.0181251 -9.0656252 29.546875
4.2068748 -18.966875 33.725624
4.2056251 -18.849375 33.459373
4.21 -18.731874 33.216251
4.2150002 -18.618126 32.986874
4.2156248 -18.499374 32.743752
4.2206249 -18.381874 32.524376
4.2287502 -18.268749 32.317501
4.234375 -18.154375 32.127499
4.2368751 -18.040001 31.911249
4.2237501 -17.924999 31.73625
4.19875 -17.809999 31.565001
4.17625 -17.695 31.395624
4.1637502 -17.581249 31.202499
4.151875 -17.469376 31.034374
4.1475 -17.355625 30.868126
4.1456251 -17.24375 30.700624
4.1512499 -17.130625 30.563749
4.1537499 -17.02125 30.503124
4.1512499 -16.913124 30.423124
4.1550002 -16.801874 30.3575
4.1587501 -16.694374 30.315001
4.1543751 -16.584375 30.249374
4.1543751 -16.47625 30.2075
4.1656251 -16.369375 30.210625
4.1706252 -16.260626 30.19125
4.1656251 -16.154375 30.146875
4.1656251 -16.045626 30.136875
4.1656251 -15.939375 30.136875
4.1668749 -15.83375 30.136875
4.1731248 -15.725 30.137501
4.1743751 -15.61875 30.137501
4.1750002 -15.509375 30.134375
4.1799998 -15.400625 30.115
4.1862502 -15.29125 30.096251
4.1900001 -15.185 30.077499
4.1893749 -15.079375 30.080626
4.1837502 -14.97125 30.12875
4.1743751 -14.865625 30.143749
4.1700001 -14.759375 30.153749
4.1687498 -14.65375 30.16
4.1668749 -14.545 30.15
4.1612501 -14.435625 30.119375
4.1599998 -14.329375 30.112499
4.1612501 -14.220625 30.115625
4.165 -14.115 30.130625
4.1668749 -14.009375 30.100624
4.1700001 -13.900625 30.068125
4.1731248 -13.794375 30.046249
4.1812501 -13.685625 30.039375
4.183125 -13.579375 30.036249
4.183125 -13.47 30.0175
4.1856251 -13.360625 30.010626
4.1956248 -13.254375 30.012501
4.1956248 -13.145625 29.963751
4.1906252 -13.04 29.93125
4.1849999 -12.93375 29.886875
4.1837502 -12.821875 29.858126
4.1793752 -12.715 29.835625
4.1743751 -12.605625 29.800625
4.1774998 -12.5 29.775
4.1793752 -12.394375 29.771875
4.183125 -12.285625 29.753124
4.1849999 -12.179375 29.75
4.1875 -12.070625 29.730625
4.1843748 -11.964375 29.692499
4.1799998 -11.855 29.67
4.17875 -11.74875 29.66375
4.1743751 -11.64 29.641874
4.1662502 -11.530625 29.616249
4.1656251 -11.424375 29.603125
4.1681252 -11.315625 29.543751
4.1668749 -11.21 29.511875
4.1662502 -11.104375 29.463751
4.1624999 -10.994375 29.42625
4.1643748 -10.885 29.363125
4.165 -10.775625 29.315001
4.1618748 -10.67 29.284374
4.165 -10.564375 29.255625
4.1637502 -10.455625 29.21125
4.1587501 -10.34875 29.18
4.160625 -10.239375 29.153749
4.1581249 -10.130625 29.126249
4.1618748 -10.020625 29.103125
4.1687498 -9.9143753 29.078125
4.1700001 -9.805625 29.075001
4.1693749 -9.7006254 29.078125
4.1668749 -9.5950003 29.084375
4.1624999 -9.4893751 29.106874
4.1637502 -9.3843746 29.17625
4.165 -9.2756252 29.252501
4.1624999 -9.1700001 29.35375
4.171875 -9.0656252 29.540625
4.375 -19.325624 34.586876
4.3631248 -18.965626 33.692501
4.3568749 -18.849375 33.439999
4.3556252 -18.730625 33.184376
4.3581252 -18.615 32.94125
4.3656249 -18.49625 32.690624
4.3743749 -18.379999 32.473751
4.381875 -18.265625 32.258125
4.3887501 -18.15 32.046875
4.3899999 -18.035 31.813126
4.3712502 -17.92 31.615
4.3493748 -17.805 31.440624
4.3299999 -17.690001 31.26
4.3162498 -17.57625 31.065001
4.308125 -17.464375 30.897499
4.3074999 -17.350624 30.735624
4.3068752 -17.239374 30.6075
4.3118749 -17.126875 30.491249
4.3137498 -17.018749 30.414375
4.3112502 -16.910625 30.338751
4.3150001 -16.800625 30.299376
4.3175001 -16.693125 30.2675
4.3112502 -16.581875 30.204374
4.3137498 -16.475 30.161249
4.3262501 -16.369375 30.168751
4.3299999 -16.260626 30.1625
4.3262501 -16.153749 30.140625
4.3256249 -16.045626 30.136875
4.3256249 -15.939375 30.136875
4.3262501 -15.83375 30.140625
4.3299999 -15.725 30.155624
4.3306251 -15.61875 30.159374
4.3312502 -15.51 30.155624
4.3356252 -15.403125 30.137501
4.3425002 -15.294375 30.133751
4.3431249 -15.18625 30.13125
4.3381252 -15.080625 30.125626
4.3299999 -14.974375 30.159374
4.3181248 -14.86875 30.166876
4.3156252 -14.760625 30.17
4.3156252 -14.654375 30.17
4.3156252 -14.545625 30.17
4.3118749 -14.43625 30.150625
4.3137498 -14.329375 30.140625
4.3200002 -14.220625 30.126249
4.3249998 -14.115 30.144375
4.3268752 -14.009375 30.134375
4.3337498 -13.900625 30.0975
4.3381252 -13.794375 30.071251
4.339375 -13.685625 30.061874
4.3356252 -13.579375 30.039375
4.3343749 -13.47 30.010626
4.3375001 -13.360625 29.997499
4.3431249 -13.254375 30.004375
4.3425002 -13.145625 29.963125
4.3387499 -13.04 29.9375
4.3331251 -12.93375 29.90625
4.328125 -12.821875 29.86125
4.3293748 -12.714375 29.825624
4.3318748 -12.605625 29.804375
4.3306251 -12.5 29.785
4.3299999 -12.394375 29.775
4.3337498 -12.285625 29.75625
4.3343749 -12.179375 29.746876
4.335 -12.070625 29.736876
4.3343749 -11.964375 29.69875
4.3306251 -11.855625 29.673124
4.3293748 -11.749375 29.66375
4.3243752 -11.64 29.622499
4.316875 -11.530625 29.581875
4.3156252 -11.424375 29.5625
4.3175001 -11.315625 29.52125
4.32125 -11.21 29.489374
4.3218751 -11.103125 29.439375
4.316875 -10.991875 29.403749
4.319375 -10.884375 29.3375
4.319375 -10.775625 29.284374
4.3162498 -10.67 29.254999
4.3187499 -10.564375 29.23
4.32125 -10.455 29.195625
4.32125 -10.345625 29.160625
4.3256249 -10.23625 29.129375
4.3231249 -10.129375 29.106251
4.3243752 -10.020625 29.09375
4.3287501 -9.9143753 29.075001
4.3287501 -9.8062496 29.075001
4.3243752 -9.7025003 29.09375
4.3181248 -9.5956249 29.112499
4.3156252 -9.4899998 29.125626
4.3162498 -9.3843746 29.17625
4.3200002 -9.2756252 29.24
4.3206248 -9.1700001 29.350624
4.3306251 -9.0656252 29.5375
4.5343752 -19.324375 34.543751
4.515625 -18.965 33.645
4.5100002 -18.849375 33.395626
4.5062499 -18.730625 33.136875
4.5075002 -18.614374 32.891251
4.5193748 -18.495625 32.654373
4.5287499 -18.379375 32.431873
4.5368748 -18.26375 32.184376
4.5393748 -18.145624 31.942499
4.535625 -18.030624 31.695
4.5168748 -17.915001 31.479376
4.4968748 -17.799999 31.297501
4.48 -17.685625 31.116249
4.4712501 -17.57375 30.936251
4.4681249 -17.460625 30.776251
4.4668751 -17.346251 30.62125
4.4662499 -17.235624 30.519375
4.4675002 -17.125 30.446251
4.4699998 -17.016251 30.372499
4.4706249 -16.909374 30.290625
4.4743748 -16.799376 30.24625
4.4749999 -16.690624 30.223749
4.4724998 -16.580626 30.188749
4.4781251 -16.475 30.158751
4.4856248 -16.36875 30.138124
4.48875 -16.259375 30.121876
4.48875 -16.151251 30.115
4.48875 -16.043751 30.115
4.4899998 -15.93625 30.115
4.4899998 -15.83 30.115
4.4899998 -15.72125 30.121876
4.4899998 -15.615 30.121876
4.4899998 -15.50625 30.121876
4.4918752 -15.40125 30.125
4.4949999 -15.295 30.141251
4.49125 -15.189375 30.1625
4.484375 -15.08375 30.16625
4.48 -14.975625 30.173124
4.4706249 -14.869375 30.173124
4.46875 -14.760625 30.173124
4.46875 -14.655 30.179375
4.4712501 -14.54875 30.191875
4.4737501 -14.439375 30.192499
4.4793749 -14.330625 30.173124
4.4856248 -14.22125 30.153749
4.4893751 -14.115625 30.166876
4.4899998 -14.009375 30.16375
4.4937501 -13.900625 30.137501
4.4974999 -13.794375 30.109375
4.4937501 -13.685625 30.08375
4.4850001 -13.579375 30.0425
4.4775 -13.47 30.01375
4.4762502 -13.360625 30.00375
4.4768748 -13.254375 30.000626
4.4762502 -13.145625 29.966249
4.475625 -13.04 29.956875
4.4743748 -12.934375 29.943125
4.4706249 -12.824375 29.876875
4.473125 -12.715 29.821251
4.4793749 -12.605625 29.825624
4.4787502 -12.5 29.8225
4.4762502 -12.394375 29.794374
4.4793749 -12.285625 29.765625
4.4793749 -12.179375 29.734375
4.48 -12.070625 29.724375
4.4825001 -11.964375 29.695625
4.4793749 -11.855625 29.673124
4.4787502 -11.74875 29.657499
4.475625 -11.64 29.61875
4.4706249 -11.530625 29.581249
4.4706249 -11.424375 29.543125
4.475625 -11.315625 29.504999
4.4806252 -11.209375 29.47625
4.4762502 -11.100625 29.416876
4.4712501 -10.990625 29.37875
4.4737501 -10.884375 29.315624
4.4737501 -10.775625 29.261875
4.4699998 -10.67 29.23
4.4724998 -10.564375 29.201876
4.4812498 -10.455 29.1675
4.4825001 -10.345 29.151251
4.4806252 -10.235625 29.122499
4.4768748 -10.129375 29.096874
4.48 -10.020625 29.075001
4.4837499 -9.9143753 29.05625
4.4837499 -9.805625 29.05625
4.48 -9.7006254 29.075001
4.4749999 -9.5950003 29.096874
4.4737501 -9.4899998 29.113125
4.4718752 -9.3843746 29.16375
4.4768748 -9.2756252 29.236876
4.4781251 -9.1700001 29.360001
4.49125 -9.0656252 29.540625
4.691875 -19.321251 34.506874
4.6881251 -19.205 34.239376
4.665 -18.848125 33.360001
4.660625 -18.73 33.098125
4.6624999 -18.61375 32.842499
4.671875 -18.494375 32.60125
4.6768751 -18.376249 32.362499
4.6849999 -18.26 32.088749
4.6837502 -18.141874 31.82625
4.6774998 -18.028126 31.58
4.6668749 -17.910625 31.352501
4.6487498 -17.795 31.170626
4.6306248 -17.68125 31.00625
4.6256251 -17.57 30.845625
4.625 -17.45875 30.688126
4.6281252 -17.344999 30.528749
4.6306248 -17.234375 30.4375
4.629375 -17.124374 30.37875
4.6300001 -17.015625 30.32625
4.6306248 -16.908125 30.264376
4.6343751 -16.796875 30.205
4.6350002 -16.689375 30.185625
4.6356249 -16.580626 30.15
4.6399999 -16.473749 30.116249
4.6443748 -16.365625 30.093124
4.6456251 -16.25625 30.086876
4.6456251 -16.149376 30.086876
4.6468749 -16.04125 30.086876
4.6531248 -15.935 30.086876
4.6531248 -15.829375 30.093124
4.6500001 -15.720625 30.108749
4.649375 -15.614375 30.111876
4.6500001 -15.50625 30.115625
4.6531248 -15.4025 30.133751
4.6550002 -15.295625 30.150625
4.6506252 -15.19 30.173124
4.6462498 -15.084375 30.188749
4.6456251 -14.975625 30.191875
4.6431251 -14.869375 30.195
4.6424999 -14.760625 30.198126
4.6387501 -14.655 30.210625
4.6399999 -14.549375 30.220625
4.6462498 -14.440625 30.235624
4.649375 -14.33375 30.214375
4.651875 -14.225 30.191875
4.6525002 -14.11875 30.188749
4.6487498 -14.01 30.17
4.6462498 -13.900625 30.144375
4.6475 -13.794375 30.115625
4.6431251 -13.685625 30.086876
4.6350002 -13.57875 30.03875
4.6268749 -13.47 30.010626
4.6231251 -13.360625 29.994375
4.6212502 -13.254375 29.985001
4.6174998 -13.145625 29.966249
4.61625 -13.04 29.959999
4.6156249 -12.934375 29.950001
4.6112499 -12.825 29.883751
4.6112499 -12.715625 29.841875
4.6218748 -12.605625 29.848749
4.6256251 -12.5 29.838751
4.6224999 -12.394375 29.788124
4.625 -12.285625 29.75625
4.6231251 -12.179375 29.728125
4.6231251 -12.070625 29.721251
4.6256251 -11.964375 29.692499
4.6231251 -11.854375 29.66375
4.6262498 -11.74625 29.625
4.6281252 -11.639375 29.588125
4.625 -11.530625 29.55875
4.6268749 -11.424375 29.51125
4.6325002 -11.315 29.451876
4.6343751 -11.20875 29.432501
4.6300001 -11.1 29.388124
4.6256251 -10.990625 29.356874
4.6256251 -10.884375 29.305626
4.625 -10.775625 29.252501
4.6218748 -10.67 29.208124
4.6256251 -10.56375 29.18
4.6331248 -10.455 29.158125
4.6343751 -10.345 29.148125
4.6343751 -10.235625 29.110001
4.6312499 -10.129375 29.081249
4.63375 -10.020625 29.05625
4.6350002 -9.9143753 29.049999
4.6350002 -9.805625 29.049999
4.63375 -9.6999998 29.05625
4.6300001 -9.5950003 29.081249
4.6275001 -9.4899998 29.126249
4.6262498 -9.3843746 29.179375
4.6306248 -9.2756252 29.236876
4.631875 -9.1700001 29.3475
4.6462498 -9.0656252 29.518749
4.84375 -19.320625 34.466873
4.8381252 -19.204374 34.194374
4.8206248 -18.844999 33.290001
4.816875 -18.72625 33.03125
4.8187499 -18.610001 32.789375
4.82125 -18.491249 32.549374
4.8262501 -18.374374 32.307499
4.835 -18.258751 32.023125
4.8306251 -18.139999 31.7425
4.8243752 -18.024376 31.476875
4.8143749 -17.905624 31.234375
4.80125 -17.79125 31.057501
4.7893748 -17.678749 30.903749
4.7837501 -17.565624 30.745625
4.7787499 -17.455 30.6075
4.7800002 -17.341249 30.469376
4.7831249 -17.230625 30.3825
4.7874999 -17.12125 30.310625
4.79 -17.01375 30.2675
4.7918749 -16.905624 30.218124
4.7962499 -16.795626 30.156876
4.7975001 -16.689375 30.143749
4.7993751 -16.58 30.113125
4.8006248 -16.471251 30.067499
4.8031249 -16.364374 30.039375
4.8031249 -16.255625 30.039375
4.8043752 -16.149376 30.0425
4.805625 -16.040625 30.0425
4.8118749 -15.935 30.049376
4.8093748 -15.829375 30.068125
4.8049998 -15.720625 30.09
4.8043752 -15.614375 30.093124
4.8049998 -15.505625 30.096251
4.8099999 -15.400625 30.122499
4.8156252 -15.295 30.16
4.8137498 -15.19 30.188749
4.8131251 -15.084375 30.198126
4.8125 -14.975625 30.20125
4.8099999 -14.869375 30.217501
4.808125 -14.760625 30.220625
4.8006248 -14.655 30.216875
4.8006248 -14.549375 30.220625
4.8068752 -14.440625 30.235624
4.8074999 -14.334375 30.217501
4.8049998 -14.225 30.195
4.80375 -14.11875 30.188749
4.8006248 -14.01 30.166876
4.7956252 -13.900625 30.140625
4.7918749 -13.794375 30.112499
4.7874999 -13.685 30.08
4.7849998 -13.576875 30.0275
4.7837501 -13.469375 30.01375
4.7824998 -13.36125 30.0075
4.7787499 -13.254375 29.995001
4.7712498 -13.145625 29.97875
4.7668748 -13.04 29.963125
4.765625 -12.934375 29.950001
4.76125 -12.825625 29.893126
4.7606249 -12.718125 29.873751
4.7687502 -12.60625 29.855
4.7775002 -12.5 29.828751
4.776875 -12.394375 29.797501
4.7800002 -12.285625 29.768749
4.7800002 -12.179375 29.731251
4.7806249 -12.070625 29.714375
4.7806249 -11.963125 29.67375
4.776875 -11.851875 29.641251
4.7800002 -11.745 29.594376
4.7806249 -11.639375 29.549376
4.7775002 -11.530625 29.518126
4.7831249 -11.42375 29.483126
4.785625 -11.311875 29.42
4.785625 -11.205625 29.403749
4.7843752 -11.099375 29.363125
4.7806249 -10.990625 29.331249
4.7800002 -10.884375 29.28125
4.7787499 -10.775625 29.23
4.7762499 -10.66875 29.183125
4.7787499 -10.56125 29.161249
4.7806249 -10.454375 29.155001
4.7818751 -10.345 29.151251
4.7874999 -10.235625 29.122499
4.7849998 -10.129375 29.09375
4.7849998 -10.020625 29.05625
4.785625 -9.9143753 29.046875
4.785625 -9.805625 29.046875
4.7849998 -9.6999998 29.049999
4.7800002 -9.5950003 29.078751
4.7750001 -9.4899998 29.147499
4.7793751 -9.3843746 29.19875
4.7862501 -9.2756252 29.24
4.7831249 -9.1700001 29.341249
4.7931252 -9.0649996 29.49625
4.9781251 -18.84375 33.235626
4.9743748 -18.725624 32.983749
4.9737501 -18.609375 32.756248
4.9712501 -18.49 32.506248
4.9749999 -18.37125 32.251877
4.9806252 -18.254999 31.966249
4.975625 -18.13625 31.666876
4.9724998 -18.02 31.38125
4.961875 -17.901875 31.130625
4.9549999 -17.78875 30.946251
4.9475002 -17.674999 30.793125
4.941875 -17.561874 30.638124
4.9393749 -17.453125 30.523125
4.9381251 -17.340626 30.430626
4.9450002 -17.23 30.3475
4.9556251 -17.119375 30.255625
4.9568748 -17.01125 30.202499
4.9612498 -16.904375 30.1625
4.9693751 -16.795 30.116249
4.96875 -16.688749 30.106251
4.964375 -16.579374 30.08
4.96 -16.470625 30.020624
4.9562502 -16.36375 29.97625
4.9543748 -16.254999 29.985624
4.9581251 -16.149376 30.0075
4.96 -16.040625 30.014376
4.964375 -15.935 30.035625
4.96 -15.829375 30.065001
4.9562502 -15.720625 30.09
4.9556251 -15.614375 30.093124
4.9556251 -15.50625 30.1
4.9593749 -15.400625 30.119375
4.964375 -15.295 30.153749
4.9662499 -15.19 30.191875
4.9693751 -15.084375 30.213751
4.9693751 -14.975625 30.224375
4.96875 -14.869375 30.248751
4.9662499 -14.760625 30.2425
4.9568748 -14.655 30.205
4.9549999 -14.54875 30.195
4.9562502 -14.44 30.19875
4.9556251 -14.33375 30.195
4.9512501 -14.221875 30.17625
4.9506249 -14.115625 30.166876
4.9524999 -14.009375 30.143749
4.94875 -13.900625 30.116249
4.9450002 -13.794375 30.09
4.9393749 -13.685625 30.068125
4.9349999 -13.57875 30.0425
4.9343748 -13.470625 30.039375
4.9356251 -13.363125 30.032499
4.9343748 -13.255 30.019375
4.9299998 -13.145625 29.9825
4.9256248 -13.04 29.956249
4.9231248 -12.934375 29.943125
4.9175 -12.825625 29.905624
4.9181252 -12.718125 29.889376
4.9256248 -12.60625 29.85125
4.9356251 -12.5 29.814375
4.9362502 -12.394375 29.793751
4.9400001 -12.285625 29.768749
4.9406252 -12.179375 29.727501
4.9437499 -12.07 29.696251
4.941875 -11.960625 29.648125
4.9362502 -11.850625 29.61875
4.9387498 -11.745 29.584375
4.9375 -11.639375 29.540001
4.9337502 -11.530625 29.49625
4.9393749 -11.42375 29.46125
4.9400001 -11.31125 29.401251
4.9400001 -11.205 29.37875
4.9393749 -11.099375 29.338125
4.9356251 -10.990625 29.305626
4.9343748 -10.884375 29.255625
4.9312501 -10.775 29.205
4.9293752 -10.66625 29.164375
4.9312501 -10.56 29.151251
4.930625 -10.45375 29.148125
4.9312501 -10.345 29.141251
4.9375 -10.235625 29.116249
4.9356251 -10.129375 29.090626
4.9362502 -10.020625 29.049999
4.9387498 -9.9143753 29.03125
4.9393749 -9.805625 29.028126
4.9387498 -9.6999998 29.03125
4.9356251 -9.5950003 29.063126
4.9318752 -9.4893751 29.138124
4.933125 -9.3843746 29.195625
4.9375 -9.2756252 29.24
4.933125 -9.1700001 29.334999
4.9406252 -9.0649996 29.470625
5.1568751 -19.435625 34.619999
5.1306248 -18.840626 33.198124
5.1262498 -18.724375 32.968124
5.1256251 -18.609375 32.747501
5.1224999 -18.49 32.493126
5.1262498 -18.370625 32.223125
5.1125002 -17.9 31.063126
5.1131248 -17.785625 30.876249
5.1131248 -17.671249 30.710625
5.1062498 -17.559999 30.583124
5.1043749 -17.450624 30.481251
5.1012502 -17.34 30.401875
5.1081252 -17.229376 30.306875
5.1199999 -17.1175 30.215626
5.1262498 -17.01 30.153749
5.1356249 -16.903749 30.100624
5.145 -16.791876 30.051874
5.1387501 -16.684999 30.0425
5.1281252 -16.57625 30.032499
5.1199999 -16.469376 29.998125
5.1156249 -16.360624 29.9475
5.11375 -16.251875 29.9475
5.1118751 -16.148125 29.97875
5.1125002 -16.040625 29.988125
5.1174998 -15.935 30.014376
5.1118751 -15.829375 30.061251
5.1100001 -15.720625 30.102501
5.109375 -15.615 30.112499
5.1056252 -15.509375 30.134375
5.1056252 -15.40375 30.147499
5.1100001 -15.295625 30.166876
5.118125 -15.19 30.198126
5.1224999 -15.084375 30.224375
5.120625 -14.975625 30.248751
5.1193752 -14.869375 30.278126
5.1156249 -14.760625 30.258125
5.1100001 -14.654375 30.201876
5.109375 -14.54625 30.179375
5.1081252 -14.436875 30.17625
5.1068749 -14.3325 30.185625
5.0999999 -14.22125 30.166876
5.0968752 -14.115 30.147499
5.098125 -14.009375 30.119375
5.0962501 -13.900625 30.096251
5.0968752 -13.794375 30.074375
5.0906248 -13.685625 30.061874
5.0831251 -13.57875 30.055
5.0831251 -13.47 30.048124
5.0887499 -13.36125 30.01125
5.0912499 -13.254375 29.985624
5.0906248 -13.145625 29.940001
5.0862498 -13.04 29.909374
5.0831251 -12.934375 29.893126
5.0812502 -12.824375 29.876875
5.085 -12.715625 29.858126
5.0912499 -12.605625 29.8325
5.0999999 -12.5 29.815624
5.0999999 -12.394375 29.778749
5.1025 -12.285625 29.75
5.100625 -12.179375 29.720625
5.1018748 -12.07 29.689375
5.0956249 -11.96 29.62875
5.0906248 -11.850625 29.594376
5.0943751 -11.745 29.565001
5.0931249 -11.639375 29.530624
5.09375 -11.530625 29.49
5.0974998 -11.42375 29.46125
5.0956249 -11.31125 29.404375
5.0956249 -11.205 29.363125
5.0943751 -11.099375 29.311874
5.0906248 -10.990625 29.278126
5.0887499 -10.884375 29.23
5.0862498 -10.775 29.186251
5.0837498 -10.665625 29.154375
5.0881252 -10.559375 29.129375
5.0856252 -10.45125 29.106874
5.0825 -10.344375 29.084999
5.0862498 -10.235625 29.0625
5.0862498 -10.129375 29.049999
5.0887499 -10.020625 29.028126
5.0900002 -9.9143753 29.021875
