ply
format ascii 1.0
comment PCL generated
element vertex 1407
property float x
property float y
property float z
element camera 0
property float view_px
property float view_py
property float view_pz
property float x_axisx
property float x_axisy
property float x_axisz
property float y_axisx
property float y_axisy
property float y_axisz
property float z_axisx
property float z_axisy
property float z_axisz
property float focal
property float scalex
property float scaley
property float centerx
property float centery
property int viewportx
property int viewporty
property float k1
property float k2
end_header
0.051183045 -0.1206456 1.7070127
0.029426305 -0.11930522 1.7403957
0.029624641 -0.11929068 1.7404171
0.041727491 -0.12039964 1.7168797
0.041864898 -0.12040023 1.7169061
0.042119246 -0.12036274 1.7167974
0.042541116 -0.12048707 1.715995
0.046334326 -0.12072803 1.7090703
0.050289299 -0.12057845 1.7071724
0.050391667 -0.12058293 1.7072937
0.05050087 -0.1206071 1.7070246
0.050596163 -0.12059657 1.7070562
0.050836302 -0.12060386 1.7067895
0.051007308 -0.12056994 1.7069222
0.051131975 -0.12052968 1.7069045
0.028726004 -0.11923342 1.7399695
0.0290535 -0.11919544 1.7403414
0.042420547 -0.12033079 1.7164963
0.042537428 -0.12031022 1.7158773
0.049234115 -0.12045455 1.7077597
0.049601998 -0.12046772 1.7074927
0.050397865 -0.12040988 1.7072269
0.050470103 -0.12048659 1.7070497
0.050578393 -0.12044234 1.7070173
0.050811131 -0.12046811 1.7070702
0.051013764 -0.12048446 1.7069225
0.029209869 -0.11901924 1.7401972
0.029582461 -0.11898377 1.7404085
0.042521022 -0.12014616 1.7157162
0.044988461 -0.12040568 1.7105173
0.049570877 -0.1203407 1.7074867
0.050445262 -0.12028813 1.7071811
0.050604079 -0.12028799 1.7072555
0.050750814 -0.1202812 1.7068412
0.050880507 -0.1202705 1.7070616
0.051009145 -0.12032592 1.7071387
0.028078379 -0.11902098 1.7394224
0.028245192 -0.11902141 1.7395812
0.032162834 -0.11854284 1.7417631
0.04208263 -0.12001237 1.7169746
0.04252328 -0.11999321 1.7158139
0.044003032 -0.12029817 1.711522
0.043972526 -0.12015821 1.7118039
0.04423761 -0.12024061 1.7114446
0.04593958 -0.12027612 1.709645
0.047905963 -0.12014767 1.7089152
0.047123853 -0.12025493 1.7086463
0.049206052 -0.12020928 1.7078106
0.049270581 -0.12025598 1.7076244
0.050361518 -0.12016247 1.7071944
0.050497677 -0.12017789 1.7071419
0.050599802 -0.12018093 1.7073216
0.05075657 -0.12017728 1.7070498
0.050998904 -0.12017253 1.7071426
0.051088195 -0.12015875 1.7069147
0.028071556 -0.1188648 1.7393737
0.02823915 -0.11886009 1.7395841
0.028609 -0.11882123 1.7395656
0.02867309 -0.11880991 1.7398494
0.031383868 -0.11853074 1.7422011
0.044092968 -0.12016068 1.7114427
0.043881603 -0.12017367 1.7110822
0.044224776 -0.1201494 1.7113758
0.044575471 -0.12025116 1.7110364
0.047580384 -0.11997173 1.7095878
0.049255412 -0.12006616 1.7079788
0.05045291 -0.12002566 1.7072039
0.050532237 -0.12007707 1.7075607
0.050657343 -0.12006383 1.707376
0.050788876 -0.1200551 1.7073003
0.051009644 -0.12004676 1.7070086
0.028075099 -0.11865153 1.7389899
0.028243471 -0.11865553 1.7393713
0.02840204 -0.11866822 1.7395246
0.029900678 -0.11847617 1.7412767
0.030048488 -0.11849165 1.7411875
0.030251846 -0.11847456 1.7412729
0.030943593 -0.11839495 1.7416915
0.031243527 -0.11836662 1.7413982
0.031711821 -0.11832656 1.7413898
0.031971842 -0.11832406 1.7414848
0.033638995 -0.118236 1.7409482
0.041362032 -0.11984731 1.716785
0.042623397 -0.11974892 1.7154802
0.043978199 -0.12002079 1.7110835
0.047442503 -0.11989383 1.7099293
0.047660623 -0.11988312 1.7096772
0.049074732 -0.1199247 1.7081662
0.04920746 -0.11992635 1.7082454
0.050200488 -0.11988143 1.7077634
0.050624944 -0.11989413 1.707249
0.050756406 -0.11987901 1.7072128
0.050843995 -0.11996916 1.7069981
0.051052094 -0.11991229 1.7066914
0.051194794 -0.11991294 1.7065089
0.027610308 -0.11869076 1.7389493
0.027901083 -0.11859776 1.7388893
0.02914726 -0.1184727 1.7405494
0.03054367 -0.11828834 1.7413682
0.030797867 -0.11827585 1.7409438
0.031388164 -0.11823943 1.7412652
0.03361173 -0.11809335 1.7411982
0.041133657 -0.1196655 1.7169579
0.041560784 -0.1195676 1.7172375
0.043541443 -0.11987638 1.711923
0.043969333 -0.11979283 1.7119315
0.044188719 -0.11992331 1.7113014
0.048988841 -0.11971558 1.7091701
0.049063023 -0.1197541 1.7085788
0.049417205 -0.11986168 1.7078382
0.050879769 -0.11983881 1.7068009
0.050981071 -0.11983645 1.7067944
0.051094417 -0.11984725 1.7066293
0.028061194 -0.11843699 1.739089
0.030201167 -0.1181597 1.7412599
0.030511085 -0.11814872 1.7413346
0.030646496 -0.1180624 1.741575
0.030821061 -0.11814196 1.741104
0.030951168 -0.11813481 1.7411447
0.031086387 -0.11812901 1.7411109
0.031510826 -0.11810468 1.7412412
0.041139837 -0.11955348 1.7170401
0.042868122 -0.11966812 1.7139928
0.043364294 -0.11974122 1.7118371
0.043971166 -0.11981014 1.7112989
0.044308592 -0.11990925 1.7104378
0.05037082 -0.11972281 1.7072847
0.050822757 -0.11952669 1.707004
0.050988216 -0.11976555 1.7061614
0.028054344 -0.11827061 1.7389269
0.028376296 -0.11828816 1.7397469
0.030690817 -0.11792529 1.7418098
0.030967506 -0.11791284 1.7415468
0.031104911 -0.11790607 1.7415096
0.031503927 -0.11788867 1.7415255
0.032104209 -0.11788184 1.7413968
0.033706747 -0.11773963 1.7418092
0.041377556 -0.11941829 1.7175428
0.04259396 -0.11935695 1.7158359
0.042766649 -0.11938995 1.7149937
0.042816933 -0.119478 1.7143477
0.042982832 -0.11951038 1.7134652
0.043081183 -0.11954818 1.7126982
0.043955125 -0.11964337 1.7111294
0.044273559 -0.11970123 1.7113621
0.045658164 -0.11983302 1.709301
0.049303472 -0.11948795 1.7091868
0.049547203 -0.11946945 1.7085952
0.04975161 -0.11945812 1.7082548
0.050011374 -0.11956369 1.7079153
0.027436534 -0.11828097 1.7387495
0.027725901 -0.11823285 1.7389752
0.030676913 -0.11779583 1.7419066
0.030813009 -0.11778922 1.7418045
0.0309486 -0.11778203 1.741812
0.031076044 -0.11779005 1.7416633
0.031200079 -0.11778143 1.7418211
0.031348825 -0.11777484 1.7417881
0.031541914 -0.11775664 1.7418628
0.033567939 -0.11761805 1.7418851
0.041125309 -0.11932524 1.7170316
0.043888267 -0.11952803 1.7111813
0.044441175 -0.11966601 1.7109605
0.045919538 -0.11953706 1.710335
0.045888901 -0.11947712 1.7095211
0.047983952 -0.11935271 1.7097493
0.049045537 -0.11943011 1.7080517
0.050005086 -0.11945609 1.7078636
0.050433539 -0.11942681 1.7070634
0.050963927 -0.11951378 1.7056938
0.026953613 -0.1182311 1.7385983
0.027563876 -0.11812711 1.73878
0.027714381 -0.11807957 1.7387952
0.027868666 -0.11808004 1.7392318
0.030656055 -0.11761095 1.7421186
0.030787025 -0.11760657 1.7421656
0.030914662 -0.11760529 1.7421743
0.031097418 -0.1175922 1.742246
0.031240707 -0.11754468 1.7422416
0.031373758 -0.11753692 1.7422425
0.031682555 -0.11754853 1.7422123
0.032016385 -0.11752096 1.7420654
0.03210225 -0.11759595 1.7420222
0.043937892 -0.11944411 1.7112781
0.044221006 -0.11951353 1.7110862
0.050125025 -0.11941598 1.7074195
0.050429609 -0.11927685 1.7069851
0.030783894 -0.11746757 1.742179
0.030911263 -0.11744834 1.7422061
0.031105792 -0.11743698 1.7422482
0.041750569 -0.11887957 1.7170618
0.042770151 -0.11899706 1.7148535
0.043999214 -0.11934336 1.7114313
0.043752365 -0.1193475 1.7105088
0.044016067 -0.11931997 1.7104827
0.050496735 -0.11921539 1.7066267
0.050575074 -0.11920842 1.7060285
0.050875422 -0.11924887 1.7058953
0.027549246 -0.11783994 1.7388173
0.028233768 -0.11767041 1.7389122
0.028444063 -0.11770377 1.7398037
0.032045793 -0.11715519 1.7428585
0.032962918 -0.11718988 1.7419735
0.040140703 -0.11868637 1.7192265
0.043077882 -0.11902206 1.7128758
0.043747511 -0.11917105 1.7111613
0.044076391 -0.11920255 1.7114667
0.044195473 -0.11923968 1.7101709
0.044910554 -0.1188725 1.7102822
0.050402746 -0.11898016 1.7066647
0.0099434098 -0.12046667 1.721594
0.016423602 -0.11813329 1.7320625
0.027362796 -0.11769047 1.7384293
0.027682602 -0.11768245 1.738969
0.033232961 -0.11705395 1.7417386
0.040027525 -0.11854506 1.7196381
0.043208122 -0.11894885 1.7117815
0.043733869 -0.11903654 1.7111319
0.043995518 -0.11907339 1.7105681
0.044118419 -0.11902336 1.7101457
0.044274222 -0.11900166 1.7101507
0.046463866 -0.1190687 1.7086749
0.047507107 -0.11895393 1.7092502
0.0501123 -0.11893573 1.7064743
0.050396111 -0.118884 1.7066491
0.050569713 -0.11902532 1.7065345
0.050647791 -0.11911426 1.7046758
0.050854877 -0.11914562 1.7054392
0.051246714 -0.11909545 1.7064124
0.02749286 -0.11749493 1.7388304
0.028019512 -0.11748046 1.7387902
0.028255269 -0.11747307 1.7392014
0.040021583 -0.11820611 1.7199755
0.04053003 -0.11836325 1.7193506
0.042562976 -0.11857563 1.7159107
0.042723935 -0.11863716 1.7151804
0.043264315 -0.11886124 1.7119147
0.043393891 -0.11889391 1.7115101
0.043757137 -0.11894692 1.7111894
0.044246357 -0.11895443 1.7099355
0.046978042 -0.11902931 1.7081482
0.050685994 -0.11900779 1.7063739
0.027368885 -0.11743829 1.7385681
0.028229553 -0.11730798 1.7391328
0.028440457 -0.11726058 1.739781
0.030993942 -0.11685959 1.7429653
0.04024227 -0.11826182 1.7199484
0.041135985 -0.11843831 1.7160231
0.042891622 -0.11857051 1.7144541
0.04398898 -0.11871406 1.7113024
0.04396946 -0.11888364 1.7104001
0.044255786 -0.11858445 1.7103039
0.050297733 -0.11874967 1.7062391
0.050394911 -0.1187116 1.7063143
0.050579015 -0.11869413 1.7062296
0.05070645 -0.11893234 1.7058272
0.016614135 -0.11796807 1.7319608
0.027514681 -0.11726018 1.7387482
0.027671309 -0.11724017 1.7385931
0.028073123 -0.117153 1.7390972
0.028228972 -0.11712484 1.7391535
0.028420579 -0.11706481 1.7382261
0.040064633 -0.11804403 1.7204124
0.040229045 -0.11802991 1.720587
0.040332485 -0.1180549 1.7202722
0.042792741 -0.11829304 1.7151804
0.043406941 -0.11859082 1.711326
0.044233251 -0.11879931 1.7098093
0.050032679 -0.11857414 1.7059586
0.0509573 -0.11865474 1.7060035
0.016455417 -0.11859292 1.7326361
0.027498413 -0.11711185 1.7388439
0.027829355 -0.11711577 1.7389715
0.028406613 -0.11694521 1.7393191
0.028596409 -0.11689583 1.7385091
0.0430548 -0.11833564 1.7129802
0.043190718 -0.11844231 1.7120826
0.044087559 -0.11844482 1.7111754
0.047266711 -0.11855946 1.7085671
0.047518402 -0.11855558 1.7086437
0.050230194 -0.11841035 1.7059456
0.05058198 -0.11864592 1.7059401
0.050691377 -0.11867586 1.7057893
0.02782502 -0.11694661 1.7389983
0.02803247 -0.11694582 1.7392364
0.043836508 -0.11838132 1.7108564
0.044279099 -0.11846182 1.7101071
0.050011512 -0.11834312 1.7062318
0.050338123 -0.11837628 1.7058624
0.050565071 -0.11852585 1.7057134
0.050711155 -0.11836237 1.7057953
0.050859746 -0.1185291 1.705737
0.043620571 -0.11825417 1.7105523
0.044215232 -0.11835577 1.7106434
0.044486947 -0.11841188 1.7103727
0.045012906 -0.11822122 1.7106688
0.047631383 -0.11833463 1.7087696
0.050040368 -0.11825121 1.7063564
0.05022525 -0.11824875 1.7060102
0.050435741 -0.11819869 1.7055743
0.050926518 -0.11836947 1.705623
0.051102359 -0.11819015 1.7062275
0.044864986 -0.118145 1.7104833
0.045096878 -0.11818121 1.7104421
0.050614472 -0.11828326 1.7053767
0.044579551 -0.11807683 1.7104818
0.050482556 -0.11815365 1.7055891
0.050845407 -0.11816146 1.7055175
0.05098708 -0.11809272 1.7055143
0.045347642 -0.11822994 1.7103976
0.045662276 -0.11782224 1.7107491
0.047372073 -0.11802419 1.7090939
0.050845459 -0.11801028 1.7054896
0.044563431 -0.1178514 1.7109414
0.044863153 -0.11788529 1.7106164
0.044975743 -0.11802698 1.7101874
0.050828401 -0.11785564 1.705351
0.051135581 -0.11777527 1.7056652
0.044853374 -0.11763401 1.7106663
0.050566774 -0.11781143 1.7055265
0.050708007 -0.11779239 1.7054322
0.051082741 -0.11768269 1.7054956
0.043492001 -0.11751539 1.7109149
0.050562501 -0.11757601 1.7054358
0.050694633 -0.11763684 1.7053677
0.050822403 -0.11761995 1.7053601
0.051211614 -0.11760462 1.7055379
0.050694317 -0.11750094 1.7053841
0.050815389 -0.11753389 1.7054098
0.051064331 -0.11745181 1.7055333
0.051210549 -0.11744821 1.7054955
0.041327409 -0.11709601 1.7143457
0.045638036 -0.11714188 1.7108178
0.050541688 -0.11735386 1.7053536
0.010536648 -0.11840249 1.7212907
0.010600751 -0.11840038 1.7215074
0.0413117 -0.11697055 1.7144284
0.050526667 -0.11725099 1.7051786
0.050666127 -0.11726744 1.7052306
0.051167436 -0.11724585 1.7051959
0.050824281 -0.11708529 1.7055877
0.016558034 -0.11639208 1.7322023
0.036483236 -0.11572459 1.7275558
0.036707442 -0.11570188 1.7272699
0.040778566 -0.11657801 1.7158134
0.042187382 -0.11689433 1.7115985
0.042305067 -0.11685125 1.7107935
0.042506341 -0.1168962 1.7111105
0.050791491 -0.11689306 1.7056389
0.050927334 -0.11685797 1.7055464
0.0511823 -0.11694795 1.7053334
0.036589932 -0.11557455 1.7274604
0.037081037 -0.11556666 1.7269756
0.051057696 -0.11682127 1.7056178
0.036459293 -0.1154782 1.7275906
0.036589943 -0.11546936 1.7275296
0.051127296 -0.11668506 1.7052885
0.036603361 -0.11531027 1.7274113
0.040245019 -0.11602284 1.717218
0.041031424 -0.11624379 1.713945
0.050776314 -0.11661775 1.7055624
0.050913397 -0.11654364 1.7054359
0.036596768 -0.11517724 1.7273877
0.040252417 -0.11591204 1.7170687
0.040868517 -0.11620891 1.7139837
0.015715152 -0.11560543 1.7321415
0.040254924 -0.11567774 1.7171999
0.040730048 -0.11606067 1.714175
0.040853042 -0.11604897 1.7137681
0.050856743 -0.11647821 1.7052512
0.051098648 -0.11642406 1.7051814
0.010313287 -0.11717573 1.7233803
0.010625991 -0.11721764 1.7231477
0.010634329 -0.11722469 1.7237302
0.016717732 -0.11558891 1.7322285
0.034272391 -0.11513776 1.7274358
0.040241174 -0.11547726 1.7172283
0.040360082 -0.11556705 1.716706
0.016361572 -0.11547474 1.7320685
0.034096669 -0.11488706 1.7277081
0.034259208 -0.11498515 1.7273617
0.034412265 -0.11496424 1.7270308
0.010159766 -0.11707576 1.7228124
0.016782733 -0.11524561 1.7324872
0.034118835 -0.11474798 1.7273997
0.034308419 -0.11485002 1.7272847
0.040058333 -0.11537191 1.7164465
0.042431343 -0.11609912 1.7100066
0.034120854 -0.11461923 1.7272524
0.034266703 -0.11466825 1.7271888
0.034405798 -0.1146617 1.7270948
0.039751574 -0.11512811 1.716791
0.01663179 -0.11499693 1.7324154
0.034296416 -0.11454348 1.7268168
0.034428261 -0.11452579 1.7267246
0.034671247 -0.11459618 1.7266694
0.034016889 -0.11443059 1.7271969
0.034160469 -0.11442074 1.7268865
0.0342956 -0.11441184 1.7267404
0.034422308 -0.11440898 1.7266724
0.034672897 -0.1144132 1.7265642
0.034023125 -0.11430006 1.7270854
0.034302793 -0.11428015 1.7265862
0.048026249 -0.11581963 1.7046163
0.050710786 -0.11539225 1.7048395
0.010738152 -0.11622092 1.7226479
0.010742089 -0.11607423 1.7225614
0.01088022 -0.116115 1.7225982
0.048203256 -0.11504496 1.7049972
0.049049985 -0.11504998 1.7050091
0.049128611 -0.11507013 1.7046609
0.048311986 -0.11496612 1.7050893
0.048423573 -0.11493991 1.705004
0.049399626 -0.11480708 1.7045653
0.050248329 -0.11493327 1.7044644
0.048265144 -0.114861 1.7049017
0.048415817 -0.11484829 1.7050661
0.049036946 -0.11480825 1.704802
0.049246863 -0.11482436 1.7048098
0.050019547 -0.1147906 1.7047887
0.050179049 -0.11469142 1.7050452
0.050571132 -0.11468717 1.7049242
0.047857486 -0.11487516 1.7048873
0.04793781 -0.11481147 1.7047588
0.048160199 -0.11478905 1.7046896
0.048329566 -0.11474351 1.7047588
0.048456971 -0.11474258 1.7046797
0.048855834 -0.11472252 1.7048951
0.049031701 -0.11471399 1.704754
0.049103402 -0.11458252 1.705083
0.049881414 -0.11453553 1.7049077
0.050159354 -0.11432764 1.7049811
0.050771415 -0.11430769 1.7050207
0.051265471 -0.11428896 1.7050017
0.050647534 -0.11420703 1.7051454
0.046123978 -0.11428188 1.706313
0.049256708 -0.11414027 1.705214
0.049444091 -0.11411698 1.7052869
0.049559064 -0.1141177 1.705189
0.049670085 -0.11410083 1.7051431
0.049820337 -0.11408388 1.7051787
0.049928192 -0.11408597 1.7051115
0.050049808 -0.11405747 1.7051088
0.050162014 -0.11408343 1.7050141
0.050262403 -0.11407661 1.7049888
0.050472979 -0.11405744 1.7051196
0.050741479 -0.11401602 1.705084
0.050845176 -0.11400219 1.7053233
0.051183809 -0.11403494 1.7052258
0.051339936 -0.11402102 1.7051048
0.047679204 -0.11410681 1.7055684
0.04858866 -0.11405829 1.7051431
0.04876342 -0.11404634 1.705101
0.049565613 -0.11398853 1.7052355
0.049680926 -0.11398492 1.7052268
0.049935982 -0.11397276 1.7051468
0.05016499 -0.11396733 1.7051425
0.05027198 -0.1139648 1.7051783
0.050761119 -0.1139352 1.7051159
0.050919089 -0.11392206 1.705332
0.051065631 -0.11392608 1.7054379
0.051178474 -0.11392399 1.7054182
0.05133079 -0.11391433 1.7053852
0.04839791 -0.11389375 1.7053487
0.049544495 -0.11388306 1.7051821
0.049725056 -0.11381141 1.7053154
0.049870826 -0.1138663 1.7051431
0.050036773 -0.11385695 1.7051929
0.050164662 -0.11379022 1.7053028
0.050363883 -0.11384424 1.7050503
0.050495669 -0.11382955 1.7049689
0.050667986 -0.11381837 1.7050647
0.050925516 -0.1138062 1.7050815
0.051136132 -0.1138218 1.7051395
0.051295601 -0.11379611 1.7051988
0.047879938 -0.11382847 1.7055329
0.049168248 -0.11372457 1.7052861
0.049245715 -0.11381068 1.70524
0.049552403 -0.11370517 1.7052288
0.049809124 -0.11369222 1.7052115
0.04992938 -0.11368312 1.7052662
0.05004774 -0.11367536 1.7052723
0.050361086 -0.11372411 1.7050995
0.050743416 -0.11365293 1.7050273
0.050860561 -0.11365064 1.7051371
0.051239874 -0.11364971 1.7051471
0.051353179 -0.11363641 1.7050083
0.04787226 -0.11371354 1.7054776
0.047990598 -0.11371136 1.7053843
0.048374549 -0.11368888 1.7052559
0.048488237 -0.11368635 1.7051604
0.049749922 -0.11360723 1.7053063
0.049919572 -0.11359414 1.7052025
0.050161358 -0.11355245 1.7052047
0.047863647 -0.11359334 1.705514
0.048486393 -0.11356527 1.7052625
0.049298577 -0.11350675 1.7054242
0.049423575 -0.1134499 1.7052902
0.049546916 -0.11344326 1.7053254
0.049729198 -0.11349642 1.7053245
0.049852863 -0.1134892 1.7052374
0.050403398 -0.11345446 1.7052954
0.050849926 -0.11344373 1.7051287
0.048550896 -0.11337902 1.7053441
0.048669808 -0.11337356 1.7052958
0.049226191 -0.11340868 1.7052248
0.049967553 -0.11336834 1.7050894
0.050336801 -0.11333766 1.705108
0.05053331 -0.11327635 1.7051221
0.050851423 -0.11332364 1.7051373
0.049338419 -0.11332186 1.7050891
0.049702998 -0.11324458 1.7053261
0.050526701 -0.11315741 1.7051771
0.051216345 -0.11315279 1.7049783
0.048721645 -0.11315828 1.7055502
0.05008325 -0.11310854 1.7051114
0.050211519 -0.11310025 1.7051227
0.05132392 -0.11302642 1.7049549
0.050411701 -0.11296677 1.7049518
0.04265878 -0.11283626 1.7082199
0.040376171 -0.15192117 1.7016279
0.044843473 -0.15137658 1.7016578
0.040014286 -0.15155116 1.7016151
0.040701978 -0.15163547 1.7017833
0.039434083 -0.15161799 1.7020531
0.03938235 -0.15152425 1.7020811
0.039625555 -0.15149711 1.7020227
0.039195217 -0.15132096 1.7020465
0.041122902 -0.15121678 1.7015237
0.040531442 -0.15097776 1.701445
0.040295705 -0.1510075 1.7022452
0.038649905 -0.15097053 1.7020915
0.04179886 -0.15051056 1.7016491
0.031142294 -0.15154852 1.702915
0.030125964 -0.1515356 1.7027158
0.030869799 -0.15136921 1.702276
0.043127116 -0.15023696 1.7016548
0.030008754 -0.15141116 1.7026464
0.030476969 -0.15133014 1.7025286
0.030812567 -0.15131074 1.7025743
0.030655015 -0.15128042 1.7023069
0.031247683 -0.15125073 1.7024753
0.030392256 -0.15132849 1.7029986
0.031178163 -0.15111543 1.7022125
0.041280936 -0.15024732 1.701826
0.039736256 -0.15036714 1.7023627
0.040905729 -0.15011871 1.701703
0.042449817 -0.15004453 1.7017685
0.040643398 -0.15006387 1.7018489
0.042693257 -0.14991212 1.7019056
0.029313577 -0.15118536 1.7031537
0.030696565 -0.15095612 1.7027913
0.04058272 -0.14991131 1.7017226
0.043066196 -0.1497639 1.7018992
0.045671027 -0.14952283 1.7020571
0.047010966 -0.1494249 1.7016554
0.027636535 -0.15118384 1.7033839
0.046195872 -0.14932074 1.7017097
0.030571736 -0.15075804 1.7027701
0.030790707 -0.15057914 1.7018903
0.040974934 -0.14971863 1.7019778
0.044085179 -0.14952479 1.7020552
0.045629241 -0.14919558 1.7012045
0.028572092 -0.1508342 1.7029243
0.031218274 -0.15063937 1.7032059
0.039503749 -0.14970286 1.701885
0.043951977 -0.14933135 1.7016929
0.045643244 -0.14916934 1.701609
0.045377556 -0.14916581 1.7013342
0.046166748 -0.14911622 1.7015253
0.046838682 -0.14908189 1.7018412
0.028526597 -0.15079033 1.7030289
0.044088081 -0.14922141 1.7018855
0.044875443 -0.14916255 1.7021796
0.044831298 -0.1492119 1.7020664
0.046018962 -0.14915539 1.7025075
0.046144985 -0.14911614 1.7023443
0.027848192 -0.15082385 1.7034743
0.028432989 -0.15068439 1.7030513
0.039744321 -0.14955693 1.7023721
0.040689666 -0.14946285 1.7020824
0.042757675 -0.14924504 1.7019794
0.046650346 -0.14882767 1.7014589
0.028266583 -0.15069778 1.7035606
0.042093579 -0.14918639 1.7020198
0.042896066 -0.14912054 1.7020564
0.043473836 -0.14906049 1.701757
0.044866096 -0.14894886 1.7019625
0.042940084 -0.14905171 1.7021405
0.042900793 -0.14901547 1.7018574
0.041797049 -0.14910208 1.702291
0.042782903 -0.14895575 1.7020665
0.044000208 -0.14874145 1.701767
0.047954574 -0.14845815 1.70191
0.040811054 -0.14907287 1.7025112
0.041005347 -0.14905907 1.7025399
0.041750163 -0.14902863 1.7024515
0.030001204 -0.14984727 1.7021301
0.040995728 -0.14888345 1.7024152
0.041348454 -0.14890966 1.7024304
0.042014048 -0.14877275 1.7027866
0.041322805 -0.14892977 1.7022955
0.030407036 -0.14988713 1.7032903
0.030204201 -0.14985065 1.7028764
0.039668679 -0.14899184 1.7025727
0.043320663 -0.14853224 1.7021371
0.044251792 -0.14844571 1.7016324
0.030552309 -0.14967866 1.703078
0.032553621 -0.14939186 1.7024565
0.033552449 -0.14942643 1.7024751
0.042312942 -0.14862911 1.7026013
0.042953141 -0.14846474 1.702094
0.043188322 -0.14843258 1.7020489
0.029991001 -0.14973348 1.7033978
0.032458145 -0.14935711 1.7030718
0.032537591 -0.14930977 1.7025247
0.037448768 -0.14877446 1.7019503
0.039203908 -0.14862701 1.7021548
0.042616956 -0.1484254 1.7023535
0.044883747 -0.148183 1.7019291
0.045691822 -0.14810853 1.7019465
0.029050244 -0.14976195 1.7037694
0.034040194 -0.14912233 1.7027304
0.035344537 -0.14893854 1.7024076
0.035436276 -0.14895524 1.7023549
0.040635958 -0.14856711 1.7024583
0.041112524 -0.14848582 1.702468
0.028524356 -0.14962772 1.7032864
0.032363262 -0.14927644 1.7032075
0.033825602 -0.14909919 1.7027628
0.036143776 -0.1488072 1.7023764
0.037477002 -0.14863244 1.7024084
0.038057387 -0.14862433 1.7023572
0.041031737 -0.14839509 1.7024219
0.032655045 -0.14910503 1.7029414
0.033272807 -0.14904675 1.7029852
0.039407406 -0.14850669 1.7026745
0.045285348 -0.14781924 1.7021447
0.036982059 -0.14854215 1.7025391
0.037426032 -0.14846715 1.7024927
0.038297378 -0.14840139 1.702503
0.039998684 -0.14822797 1.7023125
0.03022074 -0.14922029 1.703552
0.031449646 -0.14904889 1.7032872
0.032351211 -0.14892019 1.7031187
0.032872394 -0.1488554 1.7030214
0.034159455 -0.1487314 1.7028394
0.040341489 -0.14810489 1.7024286
0.04454463 -0.1476867 1.7021972
0.044741474 -0.14762519 1.7021371
0.033738256 -0.14869782 1.703017
0.035733692 -0.1484687 1.7028589
0.038948089 -0.14813778 1.7025579
0.02274354 -0.15001269 1.7058793
0.023375751 -0.14993256 1.7058667
0.032313403 -0.14861847 1.7032511
0.040518992 -0.14772433 1.7024622
0.023929669 -0.14971906 1.7056023
0.035310913 -0.14821212 1.7029449
0.040257305 -0.1476521 1.7025249
0.047702465 -0.14696455 1.7022408
0.021175979 -0.15009815 1.7068516
0.021486208 -0.15005438 1.706681
0.024257047 -0.14956141 1.7055578
0.026460402 -0.14921349 1.704651
0.031386092 -0.14854723 1.70349
0.023365002 -0.14958321 1.7058178
0.024451524 -0.14938356 1.7052859
0.031385373 -0.14845626 1.7034986
0.041047122 -0.1473866 1.7024794
0.043379262 -0.1471653 1.702383
0.025881348 -0.14912985 1.7049234
0.026203468 -0.14906652 1.7047862
0.020813551 -0.14988424 1.7071283
0.025937945 -0.14900786 1.7049339
0.026282329 -0.1489473 1.704815
0.02876207 -0.14859939 1.7040948
0.040253885 -0.14726625 1.7025683
0.026618587 -0.14879282 1.704762
0.042002149 -0.14694975 1.7024941
0.022675466 -0.14933084 1.7063011
0.022884902 -0.14929484 1.7062434
0.023078293 -0.14925833 1.7061545
0.028763941 -0.1483902 1.7041968
0.033423491 -0.14778364 1.7032311
0.033620067 -0.14775087 1.7031416
0.042558864 -0.14678547 1.7024587
0.020959958 -0.14954172 1.7072233
0.021035973 -0.14952262 1.7071514
0.02111244 -0.14950889 1.7070931
0.023350058 -0.14912419 1.7060095
0.033547904 -0.14759032 1.7032741
0.033912983 -0.14753459 1.703245
0.037365619 -0.14712878 1.7029012
0.031708363 -0.14768532 1.7036043
0.047772761 -0.14595434 1.7023737
0.032546319 -0.14749499 1.7034941
0.018993987 -0.14950623 1.7083243
0.021053322 -0.1491196 1.7070724
0.027651016 -0.14803788 1.7046366
0.030339833 -0.14770198 1.7039534
0.029953869 -0.14764056 1.7040815
0.032032926 -0.14737578 1.7035984
0.021451233 -0.14886416 1.7071524
0.021595998 -0.14883429 1.7070299
0.023058388 -0.14855683 1.706264
0.030828441 -0.14738059 1.7038951
0.032953776 -0.14712422 1.703493
0.036309019 -0.14673255 1.7031217
0.041325781 -0.14618662 1.7026715
0.019982215 -0.14900447 1.7077649
0.024850804 -0.14817593 1.7055193
0.026309678 -0.14791442 1.705024
0.035380509 -0.14673322 1.7031591
0.03233289 -0.14701903 1.7036321
0.039163422 -0.14617516 1.702865
0.041218627 -0.14596158 1.7027065
0.021668598 -0.1485074 1.707077
0.022173773 -0.14839897 1.7067035
0.024659291 -0.14797777 1.7056247
0.034902159 -0.14658816 1.7032862
0.024409439 -0.14791584 1.7057245
0.024647592 -0.14788236 1.7056293
0.026084596 -0.14766181 1.7051802
0.026443584 -0.14762218 1.7050512
0.028475976 -0.1473266 1.7046052
0.029506167 -0.14719519 1.7043185
0.031093093 -0.14695685 1.7039191
0.033455528 -0.14668098 1.7035278
0.019973585 -0.14860325 1.707852
0.028489036 -0.14721657 1.704603
0.033958066 -0.14649796 1.7035453
0.046782821 -0.14505255 1.7023088
0.02092308 -0.14833567 1.7074418
0.021995617 -0.14810979 1.7068666
0.022264894 -0.14809357 1.7067337
0.040098514 -0.14564762 1.7026843
0.040826038 -0.14558904 1.7026532
0.046376102 -0.14508902 1.7032938
0.020585168 -0.14829952 1.7076983
0.023398686 -0.14779161 1.706211
0.035083298 -0.14617534 1.7034721
0.037949465 -0.1457586 1.7031262
0.037993073 -0.14573923 1.7029945
0.038143482 -0.14576912 1.7028484
0.039540689 -0.14565009 1.7029557
0.041399371 -0.14535965 1.7024645
0.018498369 -0.14859681 1.7087665
0.019824032 -0.14836495 1.708038
0.021138765 -0.14810367 1.7074798
0.021333868 -0.14802802 1.7072338
0.023262817 -0.14769767 1.706288
0.027979972 -0.14696875 1.7047485
0.03538743 -0.14603472 1.7033
0.01938482 -0.14834066 1.7083316
0.019890342 -0.14823009 1.7079997
0.020074163 -0.14820355 1.707974
0.020111348 -0.14816645 1.7078884
0.020265302 -0.1481377 1.7078309
0.024240185 -0.14742561 1.7057875
0.027207786 -0.14698273 1.7050322
0.028334526 -0.14684355 1.7047467
0.02910227 -0.14673485 1.7045209
0.030768733 -0.14654282 1.704265
0.032737575 -0.14620294 1.7036068
0.035392728 -0.1458827 1.7032468
0.03575192 -0.14582171 1.7031763
0.036842171 -0.14569281 1.7026478
0.041028552 -0.14524011 1.7028219
0.044561598 -0.14503199 1.7032605
0.017647669 -0.14857486 1.7092637
0.019655075 -0.14815475 1.7081805
0.019809803 -0.14812186 1.7081164
0.021064868 -0.14787471 1.7074999
0.02194111 -0.14770663 1.7067426
0.022225786 -0.14766127 1.7066634
0.036518648 -0.1456847 1.7031875
0.03724293 -0.14561029 1.7032347
0.016617002 -0.14871868 1.7101693
0.018580932 -0.14828205 1.7088643
0.019069035 -0.14819562 1.7085813
0.019456353 -0.14809503 1.7082375
0.020306965 -0.14793386 1.7078921
0.02171544 -0.1476756 1.7069541
0.022269404 -0.14755431 1.706615
0.024377236 -0.1472204 1.7058511
0.030269466 -0.14631985 1.7042686
0.03124395 -0.14626306 1.7042001
0.035441663 -0.14572477 1.7036632
0.017862698 -0.14831093 1.7092909
0.019290602 -0.14801307 1.7083578
0.01968977 -0.14794162 1.7082299
0.019913916 -0.14788467 1.7080536
0.020003026 -0.1478885 1.7080101
0.020276919 -0.14785203 1.7077992
0.020791527 -0.14779024 1.7077756
0.021134716 -0.14765787 1.7072214
0.021473361 -0.14758745 1.7069689
0.021823658 -0.14750595 1.706738
0.022003749 -0.14748991 1.7067411
0.026465515 -0.14677379 1.705176
0.026780054 -0.14678879 1.7053097
0.028713882 -0.14638349 1.7043171
0.029452257 -0.14629875 1.7042258
0.032672942 -0.1459942 1.7038839
0.03458399 -0.14576727 1.7039616
0.036507145 -0.14548519 1.7033855
0.043731488 -0.14463818 1.7029451
0.018248081 -0.14815427 1.7089667
0.023378534 -0.14708887 1.7061287
0.023818128 -0.14707743 1.7057575
0.024148075 -0.14702235 1.7057986
0.027023563 -0.14664763 1.7053168
0.037742112 -0.14515041 1.7027595
0.044265989 -0.14448543 1.7028189
0.016712742 -0.14840664 1.7098736
0.02135516 -0.14745221 1.7074453
0.022017522 -0.14726384 1.7067227
0.044407737 -0.14440943 1.7028757
0.015124545 -0.14856973 1.7109047
0.015999526 -0.14822678 1.7095163
0.027918573 -0.14632221 1.7048914
0.028639164 -0.14593768 1.7042058
0.030645922 -0.14566442 1.7041063
0.015068589 -0.14833768 1.7111218
0.018698052 -0.14781755 1.7104456
0.023949418 -0.14670308 1.7061373
0.028861606 -0.145861 1.7047031
0.013834413 -0.14831795 1.7110847
0.022938333 -0.14657559 1.7063968
0.027321963 -0.1459146 1.7051014
0.028367372 -0.14580484 1.704671
0.030044502 -0.14560245 1.7047369
0.032730605 -0.14533092 1.704837
0.044575356 -0.1438807 1.7034463
0.046295349 -0.14369583 1.7032789
0.013728713 -0.14816973 1.7108381
0.01494165 -0.14809944 1.7111241
0.023919847 -0.14645459 1.7064131
0.031237105 -0.14533573 1.7045487
0.044494934 -0.14377354 1.7032852
0.04525907 -0.14367481 1.703265
0.013226805 -0.14824489 1.7112861
0.013575217 -0.14808816 1.7106717
0.021597037 -0.14691919 1.7086697
0.022601917 -0.14647071 1.7068398
0.0240351 -0.14625657 1.7064157
0.025630794 -0.14606829 1.7061299
0.026161449 -0.14608558 1.7060816
0.028642362 -0.14563203 1.7047917
0.030117435 -0.14541984 1.7048645
0.031718731 -0.14519262 1.7046643
0.032556176 -0.14514992 1.7045342
0.044452649 -0.14366561 1.7032868
0.047661345 -0.14325346 1.7030238
0.014093943 -0.14788435 1.7105248
0.021925846 -0.14661354 1.707352
0.026026027 -0.1459941 1.7061757
0.02857196 -0.1454854 1.7052336
0.02881645 -0.14543827 1.7049657
0.028670499 -0.14537311 1.7043691
0.036897883 -0.14448193 1.7041848
0.044352222 -0.14360708 1.7033933
0.046208423 -0.14337842 1.7034364
0.047504853 -0.14322981 1.7034317
0.013206554 -0.14802374 1.7115774
0.013138062 -0.14796723 1.7112672
0.013715758 -0.14790729 1.7108465
0.017890818 -0.14716578 1.7092794
0.025820391 -0.14590257 1.7061961
0.0264805 -0.14581211 1.706109
0.027964745 -0.14543842 1.7049104
0.028502865 -0.14530075 1.7047071
0.028766464 -0.14526391 1.7045279
0.028807072 -0.14533158 1.7047026
0.031053085 -0.14509523 1.7046028
0.03153399 -0.14507924 1.7045691
0.037688125 -0.14430153 1.7042269
0.044762921 -0.14347036 1.703618
0.021225674 -0.14666544 1.7087077
0.026569054 -0.14562829 1.705893
0.030598475 -0.14500184 1.7045448
0.033302765 -0.14473112 1.7045623
0.043283056 -0.14350116 1.703406
0.048030227 -0.14293739 1.7033809
0.012905472 -0.14793974 1.712355
0.013694802 -0.14770143 1.7111169
0.014010875 -0.14764699 1.7109977
0.022662064 -0.14626981 1.7079892
0.025849016 -0.14567065 1.7061995
0.025855791 -0.14565578 1.7061439
0.027285552 -0.14549969 1.7062827
0.028697722 -0.14515531 1.704967
0.037296176 -0.14415134 1.7042378
0.013066193 -0.14768156 1.7111315
0.013663488 -0.14759704 1.7109705
0.014365757 -0.14751349 1.7112029
0.01440956 -0.14742416 1.7105213
0.017706282 -0.14681417 1.7091118
0.020883212 -0.14654537 1.7089463
0.022543401 -0.14613104 1.7075186
0.0235397 -0.14593461 1.7070888
0.0306821 -0.14479704 1.7046727
0.035383865 -0.14431551 1.7050036
0.044383008 -0.14316687 1.7038627
0.013799912 -0.14748237 1.7111272
0.021949831 -0.1462703 1.7087752
0.022304704 -0.14602919 1.7080309
0.028738379 -0.14506181 1.7056354
0.041983098 -0.14322752 1.7028772
0.044309106 -0.14302856 1.7034568
0.015639342 -0.14711729 1.7103665
0.018513585 -0.14663248 1.709589
0.023802189 -0.14558434 1.7062248
0.027951235 -0.14501929 1.70544
0.029318294 -0.14477368 1.7049735
0.03260044 -0.14444424 1.705075
0.04816455 -0.14259122 1.7037865
0.048982099 -0.14256175 1.703699
0.01346417 -0.14737113 1.7116468
0.017644254 -0.14664638 1.709411
0.023565589 -0.14548543 1.7062324
0.02697514 -0.14504863 1.7059594
0.026984921 -0.14510949 1.7059566
0.028186835 -0.14489323 1.7056953
0.040586434 -0.14317355 1.7030638
0.015604728 -0.14691411 1.7103858
0.016120849 -0.14678657 1.7101897
0.017253567 -0.14670531 1.7103264
0.021636343 -0.14589648 1.7086796
0.021863516 -0.14585903 1.7085621
0.022044396 -0.14580259 1.7083352
0.027318509 -0.14485064 1.7059312
0.028278776 -0.14476353 1.705587
0.028277971 -0.1447994 1.7055776
0.032562137 -0.14425135 1.7052585
0.033234343 -0.14414443 1.7051107
0.038585171 -0.14350151 1.7046283
0.040224649 -0.14342453 1.7052928
0.014119551 -0.14713484 1.7118654
0.020926228 -0.14580695 1.7082846
0.022310663 -0.14578901 1.7087238
0.023456683 -0.14546421 1.7072607
0.026223889 -0.14490765 1.7059686
0.026711423 -0.14482236 1.7057956
0.029383177 -0.14459984 1.7058219
0.032737803 -0.14410363 1.7051123
0.041326083 -0.14304978 1.7039443
0.013582154 -0.14716029 1.711951
0.01764537 -0.14649543 1.710579
0.021781845 -0.14562422 1.7082556
0.022377042 -0.14555393 1.708263
0.029067693 -0.14453919 1.7060614
0.030348441 -0.14424841 1.7049595
0.037930358 -0.14336142 1.7042441
0.01260849 -0.1473877 1.7133278
0.013337449 -0.14705114 1.7121139
0.013531368 -0.14708358 1.7124633
0.014822054 -0.14698584 1.7123783
0.016970282 -0.14638805 1.7105669
0.017811164 -0.14618865 1.7097301
0.017939299 -0.14617553 1.7096956
0.018399056 -0.14612006 1.7092395
0.022301029 -0.14554735 1.7085367
0.023866437 -0.14515083 1.7068875
0.026927326 -0.14456889 1.7059057
0.02685377 -0.14456563 1.705573
0.028799657 -0.14437482 1.705642
0.038603153 -0.14334518 1.7050235
0.041062851 -0.14276624 1.7036625
0.014152627 -0.14698771 1.7132142
0.014315128 -0.14695993 1.7126079
0.018298585 -0.1460063 1.7091851
0.023480598 -0.14520636 1.7078003
0.023702431 -0.14518629 1.7070824
0.02398978 -0.14508863 1.707389
0.025936553 -0.14464237 1.7057935
0.026512697 -0.14460252 1.70594
0.026661817 -0.14444883 1.7058102
0.029349027 -0.14424212 1.7051054
0.029726701 -0.14407025 1.7047571
0.030037366 -0.14414077 1.7048792
0.032520995 -0.14368883 1.7043647
0.034066856 -0.14375497 1.7055761
0.038368437 -0.14305036 1.7045515
0.038208112 -0.14315794 1.7048281
0.037719186 -0.14316164 1.7040803
0.041200016 -0.14265953 1.7038702
0.041611642 -0.14265284 1.7041703
0.016257476 -0.14655831 1.7123349
0.016584368 -0.14636369 1.7109807
0.016664378 -0.14626203 1.7107444
0.016841559 -0.14626908 1.7105654
0.016626535 -0.14624101 1.7104468
0.016924536 -0.1462052 1.7102383
0.018644568 -0.14584854 1.7092118
0.02404047 -0.14501613 1.7077224
0.027394848 -0.14435934 1.7059031
0.031928901 -0.14369653 1.7047431
0.043418828 -0.14232367 1.7039649
0.043830767 -0.14220525 1.7036335
0.01432332 -0.14670078 1.7130297
0.015135343 -0.14672439 1.713304
0.016640736 -0.1461367 1.7105142
0.017156698 -0.14598627 1.709965
0.017935373 -0.1458648 1.7094884
0.018655537 -0.14573459 1.7094027
0.025866184 -0.14450565 1.7060058
0.01448019 -0.14660902 1.7128032
0.015697202 -0.14651532 1.7125764
0.01576291 -0.14615493 1.7104177
0.01625962 -0.14606392 1.7103016
0.017474432 -0.1458929 1.710108
0.019520238 -0.14565301 1.7101452
0.03091326 -0.14359857 1.7048976
0.033365399 -0.14337659 1.7050648
0.044624023 -0.14181677 1.7031696
0.016737388 -0.14619218 1.7125946
0.015192484 -0.14606532 1.7101538
0.015317732 -0.14601775 1.7100728
0.015629591 -0.14606141 1.7103627
0.01627042 -0.14595386 1.7102628
0.017298374 -0.14577472 1.7100871
0.017912956 -0.14569336 1.7097677
0.019005649 -0.14559276 1.7101051
0.027661489 -0.14398825 1.705943
0.032025065 -0.14340454 1.7050973
0.032143507 -0.14338374 1.7047122
0.04145522 -0.14246356 1.7049446
0.042843502 -0.14203694 1.7037797
0.043038655 -0.14200884 1.7037821
0.044426255 -0.14179485 1.7033906
0.015941001 -0.14625403 1.7128998
0.015445865 -0.1461813 1.7119461
0.015601598 -0.14597166 1.7105041
0.015610648 -0.14589477 1.7101123
0.015746938 -0.14591573 1.7102046
0.017107917 -0.14573368 1.7104797
0.029205313 -0.14367378 1.7056357
0.030264258 -0.14347801 1.705168
0.030565938 -0.14349714 1.7051221
0.045054156 -0.14153121 1.7032402
0.0451295 -0.14160258 1.703251
0.012480515 -0.1465513 1.7130399
0.012625638 -0.14653668 1.7127744
0.013801625 -0.14629093 1.7120385
0.016348826 -0.14603671 1.7127297
0.015128857 -0.14584018 1.7102443
0.015662059 -0.14573739 1.7101594
0.016530743 -0.14571688 1.710384
0.01754361 -0.14566842 1.7105869
0.026158975 -0.14405885 1.7064919
0.028913504 -0.14362602 1.7057799
0.043887645 -0.14164278 1.7036668
0.04416373 -0.14156385 1.7033864
0.012556393 -0.14653674 1.7133827
0.013042639 -0.14623837 1.7120469
0.014644087 -0.14617759 1.7125895
0.014160555 -0.14612803 1.7118731
0.015256279 -0.14574198 1.7102814
0.016626647 -0.14558996 1.7107128
0.017043488 -0.1455915 1.7106292
0.029338835 -0.14342168 1.7054118
0.03131029 -0.1431289 1.7046998
0.046433192 -0.14108123 1.703235
0.012629699 -0.14642939 1.7136545
0.014164669 -0.14643209 1.7141415
0.012780424 -0.14624757 1.7126857
0.013630399 -0.14624196 1.7134917
0.015821101 -0.145909 1.7127599
0.0149431 -0.14571081 1.7104797
0.01530182 -0.14564751 1.7103848
0.015643246 -0.14566734 1.7109356
0.015987469 -0.14560625 1.71058
0.016572298 -0.1455798 1.7106351
0.017653357 -0.14541501 1.7104681
0.02705384 -0.14372914 1.7062312
0.027621502 -0.14362712 1.7060561
0.031239744 -0.1431164 1.7053994
0.031935576 -0.14290631 1.7046015
0.034795132 -0.14286959 1.7052395
0.04492595 -0.1412337 1.703213
0.013538069 -0.14598757 1.7117805
0.013951767 -0.14595164 1.7119563
0.015426674 -0.14554805 1.7106352
0.016366089 -0.14547683 1.7105399
0.016998058 -0.14546174 1.7108514
0.018915186 -0.14527646 1.7110938
0.025226619 -0.14404766 1.7074151
0.028025776 -0.14336748 1.7055933
0.029613549 -0.14321131 1.7052261
0.013910949 -0.14610618 1.7139934
0.014902707 -0.14548685 1.7102723
0.016845768 -0.1453 1.710528
0.0196265 -0.14515369 1.710905
0.031947996 -0.14274003 1.7047217
0.032029577 -0.14272243 1.7045724
0.03237379 -0.14271486 1.7046546
0.034921505 -0.14239384 1.7047125
0.012881399 -0.14604658 1.7128121
0.014310772 -0.14598581 1.713985
0.015542332 -0.14529555 1.7103755
0.029568875 -0.14301094 1.7055033
0.029834136 -0.14293535 1.7053982
0.030238336 -0.14292391 1.705523
0.013814466 -0.14566559 1.7124975
0.015451889 -0.1455151 1.7125522
0.018831449 -0.14481124 1.7100686
0.025220035 -0.14371501 1.707595
0.013578665 -0.14557628 1.7120776
0.014213164 -0.14555976 1.7121538
0.017644281 -0.1453166 1.7132025
0.0186683 -0.14474501 1.7103777
0.028021708 -0.1430127 1.7059433
0.032765538 -0.1423274 1.7048873
0.032645751 -0.14232595 1.7047431
0.033534259 -0.14222193 1.7049539
0.018076846 -0.14474086 1.7109246
0.025661569 -0.14343512 1.7076658
0.027677475 -0.14302592 1.7060599
0.030687748 -0.14245051 1.7050937
0.030888127 -0.14243345 1.7053015
0.014574263 -0.14524624 1.7123053
0.017805278 -0.14459136 1.7096596
0.025877858 -0.14316508 1.706547
0.027924778 -0.14283478 1.706156
0.028172657 -0.14283484 1.7060794
0.03511608 -0.1420728 1.7057016
0.016945358 -0.14459576 1.710127
0.030197112 -0.14245349 1.7058855
0.033783004 -0.14199759 1.7052882
0.035232857 -0.1417826 1.7055328
0.036164887 -0.14173129 1.7050472
0.017140243 -0.14442062 1.7099453
0.017527442 -0.14436461 1.709999
0.017540339 -0.14434867 1.7097632
0.025429457 -0.14320295 1.7081202
0.025666958 -0.14321168 1.7078587
0.027276887 -0.14272401 1.7062993
0.027460156 -0.14272986 1.7062827
0.027685449 -0.14264368 1.7062646
0.027711658 -0.14263785 1.7061064
0.029080996 -0.14246784 1.7059929
0.031310752 -0.14207597 1.7048616
0.034690093 -0.14183609 1.7057917
0.01707655 -0.144417 1.7107277
0.017671986 -0.14446114 1.7111493
0.017339133 -0.14441615 1.7106311
0.018200638 -0.14421619 1.7099158
0.019894134 -0.14394782 1.7096546
0.0198422 -0.1440122 1.7094425
0.025699932 -0.14308818 1.7077761
0.028886918 -0.14239758 1.7060431
0.029925691 -0.14228393 1.7058299
0.033882976 -0.1418964 1.7055448
0.016988616 -0.14426962 1.710495
0.027064186 -0.14255567 1.7064766
0.027438927 -0.14251323 1.7064328
0.027310839 -0.14249673 1.7063234
0.027535165 -0.14251778 1.7063017
0.029159797 -0.1423143 1.706082
0.036240973 -0.14127024 1.7049145
0.016666276 -0.14435194 1.7110757
0.016728222 -0.14433227 1.7108318
0.017177969 -0.1442783 1.7109416
0.017695084 -0.14408635 1.7100815
0.017885629 -0.14405531 1.710027
0.018394226 -0.14399877 1.7099938
0.018789113 -0.14387625 1.7098451
0.02528096 -0.14284949 1.7075083
0.027800519 -0.14235334 1.7061632
0.031779859 -0.14184813 1.7057425
0.031802822 -0.14176799 1.7055123
0.020798316 -0.14336756 1.707996
0.03540574 -0.14113398 1.7047669
0.016847391 -0.14411397 1.7110313
0.016880158 -0.14404444 1.7104894
0.02571537 -0.14243867 1.7067566
0.027063536 -0.14226833 1.7066005
0.027206942 -0.1422445 1.7065581
0.027340677 -0.14221732 1.7065071
0.027425803 -0.14219944 1.7064767
0.017222639 -0.1438913 1.7106059
0.018079016 -0.14375994 1.7102202
0.018091073 -0.1437306 1.7101288
0.025617765 -0.14255154 1.70788
0.025846398 -0.14238627 1.7070034
0.027922189 -0.14203817 1.706443
0.035026927 -0.14102589 1.7049742
0.017836656 -0.14362426 1.7099856
0.018279582 -0.14360137 1.7100072
0.01846619 -0.14359631 1.7100444
0.01926369 -0.14348817 1.7103641
0.019265791 -0.14348701 1.7101141
0.022533383 -0.1430575 1.7099131
0.025916204 -0.14227261 1.707065
0.030859338 -0.14151911 1.705883
0.016689807 -0.14374483 1.7104058
0.017524637 -0.14360447 1.7103698
0.017965885 -0.14356069 1.7104937
0.020324526 -0.14333238 1.709686
0.022154756 -0.14295025 1.7089949
0.025123697 -0.14228627 1.7071267
0.032304052 -0.1412054 1.705971
0.034530297 -0.14094779 1.7061083
0.035761397 -0.14077866 1.7057118
0.017396448 -0.14349571 1.710227
0.017292783 -0.14358763 1.7102647
0.020452358 -0.1430638 1.7092403
0.022037871 -0.14284989 1.7094158
0.022503305 -0.1427456 1.708908
0.028440982 -0.14166467 1.7063949
0.02587096 -0.14191203 1.7067842
0.032760587 -0.14092287 1.7057129
0.021139635 -0.14273126 1.7090946
0.023669893 -0.14209953 1.7075982
0.022764809 -0.14224446 1.7072866
0.027857913 -0.14153111 1.7066453
0.027956137 -0.14150663 1.7065209
0.028331155 -0.14144368 1.7063785
0.02860827 -0.14137721 1.7061503
0.019683069 -0.14293619 1.7100722
0.019789532 -0.14280564 1.7095613
0.026721219 -0.14149784 1.706849
0.029690798 -0.14101717 1.7059194
0.019961018 -0.14269319 1.7099781
0.024681658 -0.14151153 1.7067887
0.024989141 -0.14160578 1.7071028
0.03108363 -0.14067277 1.70618
0.02648868 -0.1412026 1.7067869
0.029323727 -0.1407648 1.7059339
0.032494128 -0.14037564 1.7062266
0.020147514 -0.14244033 1.7110001
0.020194164 -0.14239334 1.7106881
0.026917301 -0.14099692 1.7065486
0.031389229 -0.14044644 1.7063092
0.03249263 -0.14029501 1.706252
0.032526277 -0.14032881 1.7060188
0.032696877 -0.14013961 1.7052788
0.034859821 -0.13987 1.7052481
0.022797132 -0.14138065 1.7070628
0.034592189 -0.13980825 1.7058609
0.034946889 -0.13967802 1.7055831
0.020472717 -0.14215489 1.7113605
0.030926609 -0.14015004 1.7064936
0.032285139 -0.14003292 1.7064109
0.015967533 -0.1428819 1.7135789
0.03253857 -0.13991189 1.7066783
0.03571659 -0.13944082 1.7063566
0.035486516 -0.13945587 1.7053376
0.020366687 -0.14199948 1.7118713
0.020293809 -0.14198737 1.7116411
0.020781126 -0.14188601 1.7112768
0.02401725 -0.1408408 1.7067086
0.026700407 -0.14036299 1.7061054
0.027849736 -0.14018582 1.7060316
0.024053846 -0.14065829 1.7067076
0.025946176 -0.1403302 1.7063082
0.027513539 -0.14015897 1.7063293
0.029657181 -0.13986869 1.7061427
0.018462077 -0.14178044 1.7110223
0.018549152 -0.14177328 1.7116683
0.024547579 -0.14036337 1.7066871
0.025168279 -0.14026505 1.7066793
0.030896876 -0.13956216 1.7064297
0.026596103 -0.14000639 1.7066947
0.026802771 -0.13997298 1.7066914
0.045341697 -0.13723989 1.7048768
0.022143153 -0.14047004 1.7074134
0.026231335 -0.13989812 1.7070749
0.031054989 -0.13918602 1.7066166
0.044578094 -0.13723408 1.7044598
0.045474973 -0.13710319 1.7048579
0.022965316 -0.14024241 1.7072897
0.028132154 -0.13950956 1.7068124
0.021172058 -0.14039154 1.7077093
0.021451626 -0.1403618 1.7077973
0.021407496 -0.14035156 1.7076796
0.021452576 -0.14035496 1.7077119
0.023038901 -0.14013267 1.7074094
0.024680102 -0.13992177 1.7072815
0.028702775 -0.13931043 1.7068558
0.029311607 -0.13925822 1.7069347
0.033626698 -0.13868991 1.7065786
0.044222109 -0.13705221 1.704806
0.044429049 -0.13697612 1.7048625
0.022048945 -0.14020455 1.7075745
0.022237636 -0.14016937 1.7075282
0.022934111 -0.14005578 1.7074933
0.0308362 -0.13893887 1.7068473
0.031260036 -0.13887377 1.7068452
0.031377494 -0.13892719 1.7068309
0.031568184 -0.13889176 1.7068011
0.034581598 -0.13845088 1.7065678
0.044053029 -0.13698947 1.7047076
0.019244302 -0.14051628 1.7081388
0.025688482 -0.13957909 1.7074796
0.027467173 -0.13933749 1.7074662
0.032238469 -0.13867092 1.7068167
0.032665189 -0.13860977 1.7067316
0.044685215 -0.13681923 1.7047939
0.019037567 -0.14048266 1.7085948
0.019000158 -0.14047007 1.708315
0.021130066 -0.14013235 1.7078496
0.021414505 -0.14009069 1.7078111
0.021569327 -0.14006531 1.7078254
0.022833131 -0.1398868 1.7075995
0.023910116 -0.13971503 1.7076534
0.027570618 -0.13922817 1.7072941
0.028396124 -0.13910127 1.7073723
0.033768188 -0.13832159 1.7066072
0.044091687 -0.13667828 1.704834
0.044251055 -0.13676558 1.7047794
0.044809386 -0.13654585 1.7049568
0.046519529 -0.13640432 1.7045499
0.013754103 -0.14173549 1.7136216
0.020285239 -0.1401533 1.7080646
0.020405784 -0.14012809 1.7080046
0.020976698 -0.14005029 1.7078971
0.022048907 -0.13991365 1.707785
0.025036247 -0.13945684 1.7076437
0.027944328 -0.13912462 1.7073439
0.030814908 -0.13868108 1.7070439
0.020991683 -0.13995387 1.7079343
0.021380492 -0.13989399 1.7079138
0.022061333 -0.13977589 1.7078055
0.024831083 -0.13941538 1.7076892
0.027792761 -0.13902861 1.7076163
0.030178843 -0.13866104 1.7071261
0.013221895 -0.14153294 1.7134886
0.023317715 -0.1395167 1.7077986
0.026962645 -0.13904133 1.7079616
0.029730471 -0.13859938 1.7071928
0.031030502 -0.1384376 1.7071561
0.045038797 -0.13637982 1.7048661
0.01325621 -0.14138874 1.7132579
0.013633667 -0.14140812 1.7134745
0.013913075 -0.14138052 1.7134601
0.0222595 -0.13955827 1.7079566
0.025334178 -0.13916199 1.7077371
0.030324934 -0.13845198 1.707245
0.045799091 -0.13618656 1.7048604
0.018225553 -0.14013219 1.7091185
0.018072177 -0.14013878 1.7087705
0.018658029 -0.14001894 1.7086409
0.019358356 -0.13989638 1.7085116
0.022744387 -0.13942835 1.7080351
0.02757345 -0.13874972 1.7076988
0.047119867 -0.13583703 1.7051381
0.013747375 -0.14116392 1.713663
0.013690977 -0.14115706 1.7133772
0.013829058 -0.1411097 1.7132921
0.017021382 -0.14019449 1.7094069
0.018604849 -0.13991262 1.7086105
0.019135041 -0.13982101 1.7085856
0.019309709 -0.1397815 1.70855
0.019426633 -0.13976507 1.7085114
0.021388428 -0.13948411 1.7081583
0.02372285 -0.13913961 1.70789
0.030406326 -0.13822342 1.7073159
0.031055206 -0.13809977 1.7072114
0.044848979 -0.13611634 1.7056822
0.045871984 -0.13592918 1.7051187
0.011366978 -0.14274459 1.7223443
0.013634559 -0.14103919 1.713341
0.018610884 -0.13979788 1.7086265
0.019739902 -0.13966851 1.7084185
0.02138933 -0.13940737 1.7082565
0.022387594 -0.13927563 1.7081534
0.022812763 -0.13921286 1.7081082
0.025289819 -0.1388046 1.7075905
0.031577017 -0.13795999 1.7074274
0.032118313 -0.13789275 1.7072878
0.03770747 -0.13696413 1.7057866
0.042843387 -0.13616568 1.7049534
0.043209895 -0.13612854 1.7050438
0.045219004 -0.13592504 1.7055891
0.045835134 -0.13582288 1.7051164
0.014063589 -0.14095756 1.7135131
0.013526552 -0.14106098 1.713668
0.020669535 -0.13944556 1.7084757
0.022566 -0.13912848 1.7081399
0.029040337 -0.1382805 1.7073323
0.043967534 -0.13598366 1.7053336
0.044987801 -0.13585979 1.7054025
0.013771554 -0.14084539 1.7141793
0.013275771 -0.14084141 1.713528
0.01960751 -0.13947412 1.708573
0.02028065 -0.13938166 1.7085642
0.020512853 -0.13933361 1.7085521
0.02196133 -0.13913806 1.7082886
0.02275365 -0.1390176 1.7081406
0.023643073 -0.13883901 1.7078643
0.043263268 -0.13595489 1.7053907
0.046109106 -0.1355525 1.7051376
0.012048677 -0.14216432 1.7225596
0.017737856 -0.13965638 1.7090917
0.02154414 -0.13907255 1.7084279
0.023541266 -0.13878255 1.7080064
0.030345725 -0.1378926 1.707798
0.016836258 -0.13971613 1.7092836
0.019777242 -0.1392425 1.7086411
0.021145208 -0.13905329 1.7084953
0.021934642 -0.13894327 1.7083924
0.022426611 -0.13884209 1.7082021
0.023310287 -0.13871191 1.7080845
0.03326793 -0.1374495 1.7075658
