ply
format ascii 1.0
comment PCL generated
element vertex 1210
property float x
property float y
property float z
property uchar red
property uchar green
property uchar blue
element camera 0
property float view_px
property float view_py
property float view_pz
property float x_axisx
property float x_axisy
property float x_axisz
property float y_axisx
property float y_axisy
property float y_axisz
property float z_axisx
property float z_axisy
property float z_axisz
property float focal
property float scalex
property float scaley
property float centerx
property float centery
property int viewportx
property int viewporty
property float k1
property float k2
end_header
-16.817932 -13.006027 36.798538 0 255 0
-1.8415527 -17.231438 32.542969 0 255 0
14.775879 -19.567986 34.991558 0 255 0
-18.574036 -11.920883 39.09285 0 255 0
37.09314 -18.140015 52.204094 0 255 0
38.851257 -18.226288 52.952618 0 255 0
-22.161804 -8.6766129 46.915588 0 255 0
20.386108 -19.710403 37.783424 0 255 0
30.901672 -16.705238 53.005737 0 255 0
30.972046 -12.392342 66.198059 0 255 0
11.88269 -19.502319 33.516571 0 255 0
-14.195923 -14.358658 34.174263 0 255 0
-0.50915527 -17.532455 32.380486 0 255 0
-22.515686 -7.8280563 49.292473 0 255 0
-14.659912 -14.150726 34.538383 0 255 0
-22.308044 -7.6551056 49.934566 0 255 0
30.971008 -12.589157 65.587036 0 255 0
-0.097900391 -17.597382 32.412117 0 255 0
-21.068115 -6.5707855 53.951744 0 255 0
6.4575195 -7.0181732 68.447067 0 255 0
-11.182251 -15.504799 32.403244 0 255 0
15.332764 -8.5319061 68.944641 0 255 0
5.0305786 -6.7706223 68.378426 0 255 0
33.896851 -17.603539 51.976665 0 255 0
-22.142456 -8.7788849 46.593727 0 255 0
-22.487549 -8.0224228 48.700981 0 255 0
-22.405334 -8.2909546 47.928028 0 255 0
32.10675 -19.956825 43.760044 0 255 0
34.221863 -20.194656 44.25346 0 255 0
-22.013855 -7.2363892 51.360817 0 255 0
-12.41748 -15.316437 32.250343 0 255 0
-10.185791 -5.8088455 62.526638 0 255 0
-10.585388 -15.545914 32.603073 0 255 0
31.132019 -14.771576 59.002666 0 255 0
-5.5346069 -16.562225 32.412842 0 255 0
-9.8216553 -15.633713 32.770138 0 255 0
-4.4627686 -16.766266 32.403694 0 255 0
-19.883606 -5.8118286 56.921848 0 255 0
-3.1943359 -5.121788 68.642776 0 255 0
18.846558 -19.649323 37.040745 0 255 0
30.661194 -13.183517 63.564293 0 255 0
31.241028 -14.452637 60.027214 0 255 0
24.022766 -9.8237 69.980927 0 255 0
-18.75 -11.748848 39.462769 0 255 0
-21.782959 -9.2125244 45.439911 0 255 0
-6.8932495 -5.0337219 66.760986 0 255 0
-21.574402 -9.4800339 44.74147 0 255 0
32.383789 -17.403061 51.672138 0 255 0
-19.079407 -11.424698 40.247322 0 255 0
38.418762 -18.356171 52.241089 0 255 0
-12.42395 -5.2314072 62.96579 0 255 0
-6.142334 -5.007225 67.260803 0 255 0
-15.62915 -5.1079559 61.486515 0 255 0
0.73547363 -17.727173 32.434563 0 255 0
-22.244446 -8.4340286 47.531048 0 255 0
34.105713 -17.726204 51.662861 0 255 0
31.190918 -14.873009 58.683826 0 255 0
-17.728271 -5.2038269 59.980652 0 255 0
31.83374 -17.446281 51.206131 0 255 0
-7.7275391 -5.0875549 66.095741 0 255 0
-10.708313 -5.6680527 62.607933 0 255 0
41.682861 -18.365173 54.076622 0 255 0
-19.386597 -11.11277 41.002041 0 255 0
-15.980469 -13.36042 36.108032 0 255 0
-10.351685 -5.6511536 62.859806 0 255 0
11.595703 -19.463715 33.383644 0 255 0
9.4055786 -7.49086 68.631516 0 255 0
11.463135 -7.8860626 68.611938 0 255 0
-21.995056 -7.1379242 51.609028 0 255 0
-15.776733 -13.550583 35.63604 0 255 0
-22.527405 -7.8900681 49.006374 0 255 0
34.564941 -17.959045 51.199795 0 255 0
-11.453735 -5.3108444 63.251244 0 255 0
30.552612 -11.802795 67.657417 0 255 0
32.459229 -17.50885 51.355682 0 255 0
31.473022 -16.4272 54.085205 0 255 0
24.195007 -19.934143 39.194748 0 255 0
-2.4263916 -5.2161789 68.73497 0 255 0
-10.638794 -5.6097641 62.798832 0 255 0
31.751831 -17.455917 51.099983 0 255 0
-8.4541626 -5.0730743 65.689713 0 255 0
28.750122 -19.931068 41.819023 0 255 0
32.265625 -17.170052 52.263199 0 255 0
29.120361 -19.9095 42.095211 0 255 0
-0.89526367 -17.427086 32.366451 0 255 0
24.852783 -9.9065933 70.133224 0 255 0
17.134766 -19.599091 36.128994 0 255 0
-19.172119 -5.4373169 58.385086 0 255 0
13.757568 -19.522964 34.406879 0 255 0
-21.96228 -7.0341263 51.907822 0 255 0
-10.678467 -5.3032074 63.68515 0 255 0
-16.753113 -5.0841675 60.851631 0 255 0
25.476196 -19.937225 39.891163 0 255 0
-5.293396 -5.0210953 67.644463 0 255 0
32.333923 -17.265404 51.98547 0 255 0
37.45282 -18.19902 52.086952 0 255 0
-20.457397 -10.369064 42.594093 0 255 0
26.663452 -10.160675 70.376564 0 255 0
36.594727 -20.371094 44.958786 0 255 0
24.931519 -19.91597 39.624401 0 255 0
30.929871 -12.064499 67.020462 0 255 0
30.240356 -11.621765 67.97287 0 255 0
-10.237183 -15.54805 32.669472 0 255 0
18.188538 -19.605217 36.675529 0 255 0
36.617737 -17.993271 52.209732 0 255 0
30.759644 -11.868835 67.509476 0 255 0
44.33667 -18.642532 54.675949 0 255 0
35.670288 -17.814171 52.202579 0 255 0
34.725281 -20.216675 44.328419 0 255 0
32.044678 -17.3983 51.377777 0 255 0
-10.244019 -5.7021255 62.676308 0 255 0
-11.0979 -5.2893829 63.439663 0 255 0
-22.060547 -8.9095154 46.081692 0 255 0
32.140686 -17.514694 51.072693 0 255 0
-10.138916 -5.194046 64.279968 0 255 0
-21.464905 -9.6773682 44.081081 0 255 0
31.442505 -16.302216 54.362324 0 255 0
30.998962 -12.445557 65.866348 0 255 0
22.915527 -9.6079865 69.860771 0 255 0
36.115295 -17.8815 52.23679 0 255 0
35.302734 -17.784195 52.062847 0 255 0
-10.427979 -5.7110901 62.527279 0 255 0
-18.201843 -12.131294 38.469563 0 255 0
-12.951782 -15.156731 32.261356 0 255 0
34.929871 -17.956429 51.310078 0 255 0
-22.448486 -8.17202 48.083523 0 255 0
34.778687 -17.978691 51.150097 0 255 0
-9.2252197 -15.695023 32.757191 0 255 0
20.667175 -9.2569427 69.61377 0 255 0
15.041992 -19.531662 35.040241 0 255 0
-20.394104 -6.0626526 55.692764 0 255 0
-14.028992 -14.402359 33.924042 0 255 0
31.553894 -17.369431 51.138508 0 255 0
-11.867554 -15.36438 32.228722 0 255 0
7.0863037 -18.828247 32.580616 0 255 0
-17.319641 -12.703003 37.191521 0 255 0
29.75116 -11.244614 68.760155 0 255 0
-6.0396118 -16.396118 32.425011 0 255 0
43.781433 -20.538162 48.499832 0 255 0
35.081238 -20.234558 44.411743 0 255 0
35.08844 -17.810364 51.806736 0 255 0
-0.45019531 -17.48658 32.314404 0 255 0
30.907837 -16.53968 53.269791 0 255 0
29.535156 -11.118866 69.008049 0 255 0
-10.484131 -5.6270905 62.680237 0 255 0
44.886047 -19.429993 52.493385 0 255 0
30.921204 -11.931152 67.308296 0 255 0
31.532166 -17.312469 51.245171 0 255 0
39.128235 -18.037117 53.409477 0 255 0
32.67334 -17.553207 51.163166 0 255 0
44.891174 -20.612457 48.873108 0 255 0
-19.616699 -10.903198 41.309494 0 255 0
31.005249 -12.19619 66.5355 0 255 0
38.95874 -18.113251 53.070545 0 255 0
-0.16546631 -5.5230484 68.917892 0 255 0
42.883606 -18.380463 54.513573 0 255 0
19.321106 -9.0348892 69.428909 0 255 0
38.042969 -18.267654 52.062195 0 255 0
-14.019287 -5.0394592 62.399746 0 255 0
45.256042 -20.134972 50.522957 0 255 0
44.800476 -19.177826 53.178894 0 255 0
-22.117798 -8.8046265 46.250679 0 255 0
41.308899 -20.509918 47.103886 0 255 0
6.2483521 -6.9073715 68.38028 0 255 0
31.609497 -16.92366 52.449268 0 255 0
41.697693 -20.507866 47.331768 0 255 0
17.9505 -8.8372345 69.228355 0 255 0
-18.981323 -5.3316498 58.634518 0 255 0
-17.197937 -12.761429 37.004005 0 255 0
-15.512695 -13.715736 35.063454 0 255 0
-14.551147 -5.0171661 62.141827 0 255 0
32.978638 -17.556816 51.289127 0 255 0
23.939697 -19.877975 39.001057 0 255 0
-16.211975 -13.177505 36.291298 0 255 0
34.212952 -17.811905 51.211029 0 255 0
14.280029 -8.2706909 68.816216 0 255 0
41.015015 -18.285339 53.682026 0 255 0
38.770203 -18.276581 52.410854 0 255 0
-0.847229 -5.3871307 68.886696 0 255 0
31.233154 -14.926804 58.280075 0 255 0
30.879639 -16.69191 52.689682 0 255 0
29.968384 -11.342911 68.473877 0 255 0
31.484253 -19.877548 43.320652 0 255 0
31.017578 -15.794022 55.50404 0 255 0
-22.163513 -7.2070618 51.044716 0 255 0
31.242371 -16.455956 53.614685 0 255 0
-21.887817 -6.779213 52.507736 0 255 0
31.060791 -15.404602 56.714294 0 255 0
31.777222 -17.479744 50.798038 0 255 0
28.9021 -10.826324 69.427376 0 255 0
-13.902161 -14.739685 32.821747 0 255 0
30.981873 -15.685379 55.788139 0 255 0
10.291992 -19.228752 33.05946 0 255 0
33.568054 -17.560265 51.559341 0 255 0
-15.049438 -4.9850616 61.887066 0 255 0
-9.1530151 -4.9936218 65.257187 0 255 0
2.6135864 -6.1403503 68.534607 0 255 0
32.256226 -17.578545 50.735188 0 255 0
-9.7496948 -5.030571 64.792404 0 255 0
32.025024 -17.212051 51.708321 0 255 0
25.087158 -9.8369141 70.199486 0 255 0
39.532776 -18.023468 53.557339 0 255 0
-22.335876 -7.4278564 50.210266 0 255 0
-15.940613 -13.32988 35.897533 0 255 0
-21.412903 -9.698761 43.814259 0 255 0
-16.72937 -12.947128 36.606991 0 255 0
-19.309204 -11.121216 40.687469 0 255 0
5.2545776 -18.488747 32.373856 0 255 0
25.961121 -19.886444 40.043159 0 255 0
40.036499 -18.091995 53.624214 0 255 0
-11.252808 -15.395393 32.276993 0 255 0
30.980896 -15.565872 56.089268 0 255 0
37.401428 -20.32592 45.264103 0 255 0
-13.466675 -5.0038452 62.673805 0 255 0
40.616394 -20.459641 46.705036 0 255 0
1.5147705 -17.786972 32.323357 0 255 0
4.451416 -6.5525513 68.27298 0 255 0
-20.922485 -6.2828827 54.47237 0 255 0
24.522766 -19.85376 39.274246 0 255 0
-6.5811157 -4.8724518 67.034439 0 255 0
-11.842834 -5.1267853 63.218124 0 255 0
31.580383 -17.198135 51.428871 0 255 0
-20.254395 -5.8473358 56.166203 0 255 0
2.0854492 -5.9808731 68.629868 0 255 0
6.2050781 -18.636902 32.406715 0 255 0
-10.449646 -5.1133957 64.047409 0 255 0
2.9849243 -6.2115021 68.432922 0 255 0
-8.1853027 -4.9275589 65.910355 0 255 0
7.8790894 -18.895828 32.569294 0 255 0
31.190735 -15.047592 57.734749 0 255 0
-3.4649658 -16.815598 32.366982 0 255 0
-2.6618652 -16.954193 32.405327 0 255 0
31.283386 -17.214767 51.168278 0 255 0
-22.599365 -7.6162872 49.383808 0 255 0
5.8753052 -18.574432 32.375401 0 255 0
34.59613 -17.893082 50.997509 0 255 0
-18.663025 -5.2085571 58.987305 0 255 0
42.640869 -18.356796 54.216621 0 255 0
45.109009 -18.861626 54.0956 0 255 0
-13.840027 -14.765579 32.617889 0 255 0
-2.0337524 -5.1285629 68.795212 0 255 0
-22.536621 -7.5223999 49.672943 0 255 0
30.846436 -13.360634 62.63031 0 255 0
43.507996 -18.409744 54.52 0 255 0
-12.342224 -5.0522003 63.069729 0 255 0
31.158569 -16.76178 52.42701 0 255 0
31.19696 -16.117447 54.413399 0 255 0
-6.9920654 -4.844902 66.780647 0 255 0
-2.0388794 -17.063705 32.374084 0 255 0
-14.138 -14.250183 33.981537 0 255 0
33.288757 -17.519058 51.33934 0 255 0
11.932922 -7.809021 68.640297 0 255 0
20.250305 -19.580498 37.534927 0 255 0
31.3396 -16.332993 53.827717 0 255 0
23.232117 -9.5292816 69.903008 0 255 0
39.992798 -20.41909 46.353283 0 255 0
-18.518677 -11.856522 38.748161 0 255 0
44.903137 -19.043182 53.375015 0 255 0
35.49292 -20.17366 44.504154 0 255 0
32.004456 -17.05323 52.007465 0 255 0
44.926331 -18.680328 54.490116 0 255 0
30.686584 -16.483711 52.983196 0 255 0
31.76709 -17.603828 50.189709 0 255 0
45.420532 -20.225327 50.055733 0 255 0
19.824585 -19.557449 37.342674 0 255 0
-22.638367 -7.6694565 49.116611 0 255 0
32.335205 -17.653381 50.347679 0 255 0
8.5956421 -18.978714 32.623947 0 255 0
2.491394 -17.935242 32.283623 0 255 0
31.467346 -17.381851 50.664211 0 255 0
-21.670898 -9.2690887 44.78223 0 255 0
45.375061 -20.525841 49.087437 0 255 0
37.751953 -18.17041 51.873016 0 255 0
-10.982361 -5.096344 63.648808 0 255 0
-4.69104 -16.58448 32.239128 0 255 0
42.007019 -18.356628 53.740063 0 255 0
36.329529 -20.225098 44.768459 0 255 0
38.990112 -18.16568 52.579964 0 255 0
33.689026 -17.600708 51.246201 0 255 0
-11.366638 -5.0826111 63.455463 0 255 0
27.839233 -10.28614 70.177788 0 255 0
41.552917 -18.324928 53.563332 0 255 0
-2.7940674 -4.9558868 68.776978 0 255 0
1.4448242 -5.772171 68.727936 0 255 0
-17.564941 -12.46347 37.368801 0 255 0
45.120728 -18.757912 54.295265 0 255 0
-7.5216675 -4.8478241 66.378433 0 255 0
44.667419 -18.582626 54.566669 0 255 0
35.363464 -17.727951 51.808861 0 255 0
-13.661133 -14.82589 32.408333 0 255 0
35.848083 -17.748993 52.021828 0 255 0
-20.082153 -5.6828384 56.583809 0 255 0
-22.380371 -8.1140747 47.839203 0 255 0
-13.037537 -4.952713 62.863037 0 255 0
32.778625 -17.605469 50.677727 0 255 0
31.360535 -16.233727 54.042976 0 255 0
0.71881104 -5.5917358 68.835159 0 255 0
14.390259 -19.427399 34.517025 0 255 0
44.799988 -20.520782 48.704063 0 255 0
-22.049438 -6.8120956 51.986557 0 255 0
-14.502136 -14.049141 34.266159 0 255 0
30.918457 -15.830078 55.004627 0 255 0
36.569641 -17.884125 51.995426 0 255 0
-16.181824 -13.119553 36.121689 0 255 0
35.263733 -17.775009 51.566929 0 255 0
35.207703 -17.850342 51.302982 0 255 0
31.378235 -17.463562 50.272369 0 255 0
4.1608276 -18.23362 32.234486 0 255 0
40.550293 -18.144821 53.470982 0 255 0
23.321777 -19.75087 38.645924 0 255 0
31.071411 -17.044144 51.364971 0 255 0
35.055908 -17.900536 51.040642 0 255 0
32.129761 -17.679184 50.027397 0 255 0
10.862183 -7.5820923 68.561951 0 255 0
-19.725525 -5.4787827 57.350407 0 255 0
44.085327 -18.451492 54.560459 0 255 0
39.055725 -17.948662 53.194633 0 255 0
12.559753 -19.388145 33.535919 0 255 0
29.5896 -19.765106 42.195641 0 255 0
39.065857 -18.072746 52.815742 0 255 0
-21.010864 -9.8919449 43.13982 0 255 0
43.019775 -18.344597 54.259979 0 255 0
30.963745 -15.954605 54.600239 0 255 0
30.870483 -16.666428 52.373451 0 255 0
-22.1297 -6.881813 51.67004 0 255 0
6.7745361 -18.676834 32.353859 0 255 0
38.903931 -18.236481 52.209869 0 255 0
-2.4967651 -4.9744415 68.795212 0 255 0
31.71228 -16.869797 52.230659 0 255 0
45.182373 -20.521164 48.85331 0 255 0
33.276489 -17.558578 51.023258 0 255 0
-14.459351 -4.8134766 62.3815 0 255 0
33.681702 -19.906616 44.095844 0 255 0
21.397888 -9.1856689 69.709908 0 255 0
-15.435181 -4.8343811 61.753323 0 255 0
25.417847 -9.7626801 70.260307 0 255 0
-14.043274 -14.299377 33.685867 0 255 0
-5.2332153 -16.449478 32.202011 0 255 0
33.819702 -17.673576 50.968613 0 255 0
30.681335 -16.331238 53.253059 0 255 0
31.656433 -17.002014 51.768753 0 255 0
-14.004822 -4.8261032 62.582397 0 255 0
-9.4674072 -4.8506012 65.115997 0 255 0
13.376099 -7.97995 68.735794 0 255 0
44.091736 -20.432739 48.460678 0 255 0
30.599976 -16.496147 52.689926 0 255 0
-17.365784 -4.9093552 60.382126 0 255 0
31.203308 -16.280762 53.685539 0 255 0
-4.4588013 -4.8237915 68.072586 0 255 0
26.989685 -19.780678 40.583046 0 255 0
-14.852295 -4.7922058 62.174652 0 255 0
31.118652 -11.97287 66.764839 0 255 0
0.90185547 -17.580536 32.251774 0 255 0
-8.8348389 -15.626434 32.597618 0 255 0
-22.233154 -6.9518585 51.329372 0 255 0
28.788635 -19.775803 41.623333 0 255 0
30.769653 -17.02459 51.151375 0 255 0
30.764404 -16.930695 51.431644 0 255 0
-8.0548096 -4.8008423 66.050529 0 255 0
-21.171204 -6.2934265 53.938892 0 255 0
11.287598 -7.6248322 68.581848 0 255 0
-22.640991 -7.668457 48.894943 0 255 0
-21.895569 -6.5619049 52.692852 0 255 0
-3.2012329 -4.8188858 68.777649 0 255 0
-8.7376709 -4.7959061 65.657021 0 255 0
16.866394 -8.5089111 69.087944 0 255 0
-12.99884 -14.989212 32.115395 0 255 0
31.751465 -17.608612 49.910805 0 255 0
27.99292 -19.758377 41.185585 0 255 0
12.052246 -19.343918 33.263191 0 255 0
9.414978 -19.036621 32.679401 0 255 0
-19.119263 -11.281242 39.886368 0 255 0
-3.4238892 -4.783699 68.738907 0 255 0
31.161194 -13.418869 62.334927 0 255 0
2.442688 -17.871964 32.206303 0 255 0
-9.7545776 -4.8447113 64.900314 0 255 0
31.367859 -17.499313 49.997932 0 255 0
18.441406 -8.7327118 69.282013 0 255 0
-10.720337 -4.987442 63.895405 0 255 0
35.637695 -17.691162 51.865372 0 255 0
-15.849487 -13.392403 35.303558 0 255 0
31.666687 -16.878799 52.045109 0 255 0
32.65863 -17.683685 50.160297 0 255 0
30.625183 -16.568756 52.386932 0 255 0
39.286499 -17.896469 53.328621 0 255 0
-13.997131 -14.478294 33.048321 0 255 0
30.813599 -16.235374 53.510574 0 255 0
19.854065 -8.9184723 69.507256 0 255 0
33.449829 -17.497444 51.179188 0 255 0
31.260315 -11.798645 67.293304 0 255 0
39.098633 -17.882965 53.256115 0 255 0
-1.7267456 -5.0654907 68.817055 0 255 0
-9.3892822 -15.495071 32.593243 0 255 0
-12.112183 -15.162933 32.036098 0 255 0
-14.114746 -14.198463 33.820702 0 255 0
33.397095 -17.470612 51.218079 0 255 0
-10.080566 -15.386749 32.518005 0 255 0
31.264038 -16.134377 54.061848 0 255 0
-7.7623291 -4.7584229 66.262787 0 255 0
31.252563 -16.754936 52.161491 0 255 0
15.848328 -8.3383942 68.944992 0 255 0
21.539612 -19.626205 37.802662 0 255 0
45.198853 -19.656906 51.33865 0 255 0
22.375732 -19.65239 38.200417 0 255 0
43.580322 -20.370667 48.223034 0 255 0
31.007446 -12.348221 65.439865 0 255 0
30.721558 -13.136719 62.869762 0 255 0
-21.557007 -9.4940643 43.853493 0 255 0
-22.545105 -7.2944641 49.991611 0 255 0
-10.157593 -4.8825912 64.482704 0 255 0
17.832397 -19.453339 36.178745 0 255 0
7.4972534 -6.9484482 68.355286 0 255 0
-22.363525 -6.9838562 51.040451 0 255 0
-9.9216309 -4.8420563 64.740509 0 255 0
-12.71344 -4.8836365 62.999393 0 255 0
31.185242 -17.213058 50.695595 0 255 0
30.519165 -16.838516 51.45142 0 255 0
-16.711914 -12.833275 36.448853 0 255 0
32.055786 -17.65332 49.850845 0 255 0
-20.741882 -10.035423 42.657436 0 255 0
30.674194 -13.035095 63.137238 0 255 0
30.438293 -16.917221 51.159142 0 255 0
31.027771 -17.112991 50.900772 0 255 0
30.780457 -16.658508 52.143364 0 255 0
-6.3364258 -4.6935806 67.241302 0 255 0
-18.480896 -5.0284271 59.221691 0 255 0
45.15686 -19.472549 51.844013 0 255 0
-22.483521 -7.1827774 50.342934 0 255 0
-4.6766968 -4.7645111 67.976852 0 255 0
-18.86438 -11.495926 39.273849 0 255 0
-15.032043 -13.779137 34.516193 0 255 0
31.049805 -16.195175 53.702133 0 255 0
-9.7715454 -15.415253 32.556992 0 255 0
-20.796509 -5.9906311 54.942123 0 255 0
40.981995 -18.193329 53.328514 0 255 0
-17.946472 -4.9273224 59.825428 0 255 0
8.4351807 -7.0981903 68.406357 0 255 0
23.614746 -9.4626617 69.941849 0 255 0
42.362793 -18.344421 53.660557 0 255 0
-16.607849 -4.7518997 61.123322 0 255 0
31.242249 -16.158028 53.913368 0 255 0
22.957886 -19.667427 38.436554 0 255 0
41.897522 -18.325333 53.439278 0 255 0
18.070496 -19.440308 36.308502 0 255 0
44.972229 -19.102005 52.84053 0 255 0
12.996521 -19.34169 33.683941 0 255 0
-3.628418 -4.7375183 68.638443 0 255 0
36.332886 -17.77816 51.896931 0 255 0
30.985229 -16.823753 51.724209 0 255 0
-15.887817 -4.7535706 61.520351 0 255 0
38.121704 -18.144501 51.80687 0 255 0
-17.093384 -12.668846 36.68792 0 255 0
-6.8369751 -16.022293 32.369602 0 255 0
-13.773499 -4.7548065 62.731361 0 255 0
45.543762 -20.422768 49.130421 0 255 0
3.1998901 -17.988129 32.154411 0 255 0
8.0061646 -7.0212555 68.365677 0 255 0
30.738892 -16.726654 51.867069 0 255 0
30.469482 -11.334892 68.149422 0 255 0
-15.53833 -13.566254 34.832546 0 255 0
-4.1203003 -4.7442017 68.312958 0 255 0
40.994141 -20.338852 46.753639 0 255 0
30.94873 -16.009369 54.167286 0 255 0
27.611877 -10.084991 70.309853 0 255 0
36.997498 -17.953598 51.723186 0 255 0
39.121765 -17.944656 52.973049 0 255 0
-22.173218 -8.4747086 46.531067 0 255 0
10.387939 -7.4103241 68.5392 0 255 0
-17.799561 -12.240044 37.567448 0 255 0
-22.496399 -7.8145142 48.355156 0 255 0
31.272461 -11.719917 67.427155 0 255 0
-21.663025 -9.3545761 44.135147 0 255 0
-8.8987427 -4.7328796 65.581085 0 255 0
-5.1810913 -4.7142639 67.778748 0 255 0
40.173706 -18.007614 53.372047 0 255 0
31.157288 -14.694336 58.280182 0 255 0
27.279419 -9.9940033 70.376007 0 255 0
-22.574524 -7.6953735 48.657677 0 255 0
-4.3299561 -16.548515 32.173042 0 255 0
15.225037 -8.2026062 68.888519 0 255 0
30.255005 -11.202911 68.398346 0 255 0
31.232605 -16.800537 51.890377 0 255 0
13.47467 -19.331627 33.938309 0 255 0
-5.7471924 -4.6759415 67.5495 0 255 0
-14.678955 -4.6712952 62.415661 0 255 0
15.613281 -19.385078 35.001038 0 255 0
12.588562 -7.7647781 68.689285 0 255 0
-17.646362 -4.8616486 60.119705 0 255 0
16.941101 -19.417023 35.663528 0 255 0
31.059265 -12.1884 65.841591 0 255 0
42.876953 -18.313675 53.971016 0 255 0
-8.5153198 -4.7085876 65.844925 0 255 0
-3.9186401 -16.605652 32.213951 0 255 0
31.011292 -17.242355 50.397888 0 255 0
35.508728 -17.691467 51.618858 0 255 0
-13.369934 -14.833794 32.167965 0 255 0
30.552673 -16.616013 52.040798 0 255 0
-22.440186 -7.9058914 48.065323 0 255 0
30.452148 -16.972717 50.893444 0 255 0
-7.246521 -4.6673355 66.693878 0 255 0
-20.69812 -5.8848724 55.228748 0 255 0
-22.149536 -8.2637329 47.137329 0 255 0
45.049316 -18.91156 53.387154 0 255 0
-16.100342 -13.117645 35.818638 0 255 0
31.145874 -14.572449 58.60564 0 255 0
24.109558 -19.725304 38.837456 0 255 0
31.249939 -11.82579 67.039917 0 255 0
33.538025 -17.60881 50.722748 0 255 0
-16.847839 -4.7328644 60.950275 0 255 0
-3.8236694 -4.7055817 68.5364 0 255 0
-2.9150391 -16.772171 32.262749 0 255 0
-21.855164 -8.9256287 45.275524 0 255 0
11.416809 -19.231522 33.019291 0 255 0
-19.611389 -10.76239 40.965748 0 255 0
-19.984863 -10.482132 41.602306 0 255 0
-1.6395874 -17.036652 32.180073 0 255 0
42.647339 -20.316475 47.697289 0 255 0
36.890625 -20.132278 44.939392 0 255 0
36.017761 -17.709305 51.825039 0 255 0
31.338745 -13.436974 62.156609 0 255 0
-21.635559 -6.3273315 53.309891 0 255 0
30.714661 -17.017197 50.875256 0 255 0
34.506775 -19.945518 44.130474 0 255 0
-20.586243 -10.105789 42.389362 0 255 0
-21.785706 -6.3834076 53.049156 0 255 0
30.960449 -17.320648 50.088882 0 255 0
39.169983 -18.134033 52.338562 0 255 0
11.004089 -19.175323 32.933189 0 255 0
30.982056 -13.261871 62.475338 0 255 0
-21.767944 -9.0388336 44.957253 0 255 0
34.0401 -19.874664 44.070274 0 255 0
25.90741 -9.7285004 70.323257 0 255 0
-14.961304 -4.6535568 62.249241 0 255 0
45.176575 -18.82959 53.670788 0 255 0
38.277222 -20.222542 45.44722 0 255 0
33.005249 -17.631462 50.307926 0 255 0
30.863953 -16.073364 53.823639 0 255 0
-22.169006 -8.5508957 46.203827 0 255 0
31.105042 -11.593216 67.624077 0 255 0
34.446228 -17.766281 50.724144 0 255 0
33.225037 -17.602058 50.521118 0 255 0
45.593262 -20.342926 49.285992 0 255 0
-20.398193 -5.6781464 55.97855 0 255 0
19.0495 -19.436684 36.753609 0 255 0
45.35022 -19.816681 50.748009 0 255 0
-18.688599 -11.632767 38.803291 0 255 0
30.399719 -19.682266 42.538559 0 255 0
-22.150574 -8.342247 46.838242 0 255 0
33.987 -17.677765 50.714405 0 255 0
-11.138977 -4.8964233 63.682194 0 255 0
-0.94787598 -17.177116 32.103493 0 255 0
39.117493 -17.856171 53.117561 0 255 0
38.496216 -18.14167 51.887993 0 255 0
10.171021 -19.065346 32.74894 0 255 0
43.093506 -20.309311 47.923645 0 255 0
-10.489136 -4.8549347 64.173912 0 255 0
44.585266 -18.433289 54.501888 0 255 0
24.391785 -19.710381 38.970646 0 255 0
16.359131 -19.383881 35.336388 0 255 0
31.112366 -12.031105 66.258743 0 255 0
30.012329 -19.674484 42.314369 0 255 0
0.14331055 -5.3299561 68.844086 0 255 0
13.902527 -19.318253 34.114704 0 255 0
31.162415 -19.695419 42.910099 0 255 0
-13.976318 -14.516876 32.680893 0 255 0
-6.0675659 -4.6242599 67.404251 0 255 0
-2.3031006 -4.8696594 68.825058 0 255 0
30.078186 -11.046333 68.644119 0 255 0
30.827881 -13.153412 62.64978 0 255 0
-19.775696 -10.616249 41.223072 0 255 0
20.707275 -19.492935 37.481468 0 255 0
14.98584 -8.1183472 68.869919 0 255 0
-14.301697 -14.03965 33.935524 0 255 0
28.754639 -10.472336 69.622772 0 255 0
-21.505615 -6.2585068 53.510147 0 255 0
-20.18689 -10.328094 41.860016 0 255 0
-6.930603 -4.6095886 66.931747 0 255 0
-13.343628 -4.7273865 62.876041 0 255 0
-22.117981 -8.6369324 45.897354 0 255 0
35.498596 -17.806549 51.132366 0 255 0
-0.40344238 -17.262024 32.099041 0 255 0
-14.409607 -4.6104279 62.608349 0 255 0
-15.816223 -13.379173 35.058067 0 255 0
37.347168 -17.999825 51.601044 0 255 0
0.29418945 -17.374336 32.155636 0 255 0
31.012146 -15.096298 56.802498 0 255 0
31.974731 -19.679077 43.382301 0 255 0
-21.102112 -6.1013336 54.198635 0 255 0
-11.448303 -15.190422 32.044777 0 255 0
45.051819 -18.934868 53.17886 0 255 0
32.897949 -17.642143 50.116375 0 255 0
-10.462097 -15.289955 32.300552 0 255 0
30.522217 -16.255409 52.971264 0 255 0
38.947693 -18.159805 52.018768 0 255 0
7.6481323 -18.725647 32.256371 0 255 0
-2.3429565 -16.849922 32.217087 0 255 0
19.085144 -8.7133026 69.376335 0 255 0
30.855225 -15.486214 55.501495 0 255 0
17.660889 -8.5109787 69.165001 0 255 0
-22.701904 -7.4409485 49.165306 0 255 0
-15.200684 -4.6229248 62.078018 0 255 0
2.2192993 -5.8183594 68.46962 0 255 0
36.069458 -20.046249 44.580341 0 255 0
30.352844 -16.985497 50.619701 0 255 0
9.1242676 -7.1231995 68.460236 0 255 0
31.133301 -14.768089 57.828945 0 255 0
30.294312 -16.82502 51.072681 0 255 0
-16.462585 -12.871048 36.187359 0 255 0
25.093079 -9.569519 70.198685 0 255 0
30.884827 -15.372528 55.839397 0 255 0
45.097046 -19.12429 52.585857 0 255 0
-13.865112 -14.591591 32.432457 0 255 0
33.026428 -19.6996 43.875225 0 255 0
-12.300537 -15.043121 31.955368 0 255 0
21.752197 -9.0769043 69.770309 0 255 0
43.531067 -18.282455 54.245014 0 255 0
-11.551086 -4.8390503 63.49892 0 255 0
39.216187 -17.817955 53.170994 0 255 0
17.607361 -19.390625 35.922016 0 255 0
-18.000427 -12.063881 37.745583 0 255 0
-22.696289 -7.3447571 49.428661 0 255 0
-22.670837 -7.2508087 49.729031 0 255 0
41.52002 -18.240936 53.201077 0 255 0
30.788208 -15.645493 54.928097 0 255 0
23.990173 -9.4211121 69.989746 0 255 0
30.575562 -16.999321 50.675205 0 255 0
12.379517 -19.276123 33.24691 0 255 0
35.7995 -17.683968 51.593449 0 255 0
-18.228088 -4.866806 59.544376 0 255 0
-1.2786255 -5.0245361 68.826958 0 255 0
18.758728 -19.386108 36.578014 0 255 0
35.151062 -19.964668 44.258743 0 255 0
31.067322 -17.350616 49.875023 0 255 0
32.631592 -17.626869 49.931664 0 255 0
-0.4364624 -5.1764374 68.841652 0 255 0
20.47998 -8.8795471 69.600464 0 255 0
-22.68573 -7.498085 48.937748 0 255 0
40.225342 -20.237244 46.339703 0 255 0
14.175964 -7.943924 68.81134 0 255 0
45.168762 -18.553162 54.316032 0 255 0
30.466431 -16.371269 52.493446 0 255 0
-22.312012 -6.7323608 51.471851 0 255 0
-22.183044 -8.1014862 47.369316 0 255 0
37.700317 -18.035461 51.582424 0 255 0
43.883484 -18.294952 54.352436 0 255 0
30.592896 -16.110214 53.355904 0 255 0
-22.567261 -6.9326096 50.707359 0 255 0
31.485168 -13.475891 61.899757 0 255 0
31.909546 -17.539749 49.742146 0 255 0
16.321228 -8.280899 68.990387 0 255 0
-12.455627 -4.7692032 63.114391 0 255 0
-15.614563 -4.6124115 61.765705 0 255 0
-20.437805 -10.140671 42.125793 0 255 0
30.757263 -15.788132 54.402802 0 255 0
36.276672 -17.750969 51.595814 0 255 0
30.651245 -17.06163 50.453342 0 255 0
35.42627 -17.833466 50.850258 0 255 0
-13.199524 -14.813072 32.03524 0 255 0
-19.510559 -5.1560822 57.846149 0 255 0
-10.888245 -4.8047791 63.8848 0 255 0
11.64209 -7.5164185 68.597855 0 255 0
-13.090637 -4.6916046 62.958107 0 255 0
-8.0356445 -4.5771942 66.216995 0 255 0
45.616028 -20.161942 49.607327 0 255 0
32.197388 -17.579666 49.748024 0 255 0
2.19104 -17.707016 32.065983 0 255 0
23.716736 -19.636444 38.585354 0 255 0
-12.080933 -4.78022 63.259663 0 255 0
-21.75238 -9.0702209 44.604286 0 255 0
31.454468 -11.677094 67.308731 0 255 0
-22.647278 -7.5365448 48.760162 0 255 0
0.034118652 -17.287292 32.093445 0 255 0
-12.76416 -14.915016 31.950195 0 255 0
12.02478 -7.5649567 68.646156 0 255 0
1.6681519 -5.6279602 68.584946 0 255 0
-21.3302 -6.1282043 53.804974 0 255 0
30.241638 -16.893547 50.693424 0 255 0
30.411804 -16.509026 51.960815 0 255 0
43.243774 -18.256378 54.024376 0 255 0
3.8805542 -6.2025223 68.096214 0 255 0
36.834473 -17.872681 51.497768 0 255 0
24.562134 -9.4518127 70.090225 0 255 0
26.939697 -9.7988052 70.401993 0 255 0
-14.091064 -14.24099 33.205086 0 255 0
-3.2893066 -4.601387 68.820877 0 255 0
31.451782 -17.415817 49.760494 0 255 0
-22.039673 -8.6723404 45.59853 0 255 0
-10.281189 -4.7081451 64.46077 0 255 0
-18.4776 -11.737617 38.288517 0 255 0
-14.903748 -4.4980316 62.421738 0 255 0
-20.299438 -5.4946747 56.269123 0 255 0
29.939697 -10.867691 68.828445 0 255 0
30.68219 -15.941841 53.781754 0 255 0
44.416687 -20.310463 48.372498 0 255 0
2.7474976 -5.9055023 68.288239 0 255 0
-21.745239 -9.1728516 44.196171 0 255 0
42.257202 -18.270317 53.32671 0 255 0
31.358032 -13.95639 60.194641 0 255 0
-13.924744 -4.5335388 62.832523 0 255 0
39.363647 -17.942337 52.647949 0 255 0
30.645691 -11.178368 68.245819 0 255 0
30.253967 -16.943146 50.436905 0 255 0
-19.53125 -10.773956 40.554569 0 255 0
30.873657 -16.981354 50.670135 0 255 0
30.393921 -17.022331 50.268158 0 255 0
39.349915 -18.112129 52.103367 0 255 0
4.2902222 -6.2587585 68.046432 0 255 0
19.547424 -19.374908 36.841133 0 255 0
-14.148438 -14.117989 33.453411 0 255 0
30.847717 -16.977791 50.660416 0 255 0
28.451111 -10.208046 69.90976 0 255 0
39.52832 -17.795586 53.154636 0 255 0
-15.475769 -13.482384 34.611092 0 255 0
2.8581543 -17.803566 31.997322 0 255 0
26.831848 -19.635132 40.225952 0 255 0
33.729675 -17.582054 50.458618 0 255 0
9.503479 -18.920959 32.413147 0 255 0
33.38208 -17.574997 50.275581 0 255 0
39.305481 -17.806725 52.97966 0 255 0
30.738342 -17.192978 49.913986 0 255 0
6.4805298 -6.6218796 68.161575 0 255 0
-14.593689 -13.81192 34.086861 0 255 0
21.913757 -19.519638 37.716248 0 255 0
6.02948 -6.5489655 68.115128 0 255 0
18.511292 -19.318283 36.366505 0 255 0
-2.8673706 -4.6175842 68.871109 0 255 0
35.961853 -17.794899 51.061989 0 255 0
-14.833191 -13.707069 34.250839 0 255 0
1.0828247 -5.4212494 68.688828 0 255 0
31.421021 -11.55394 67.458084 0 255 0
3.449646 -6.052887 68.114616 0 255 0
36.340088 -17.797989 51.24929 0 255 0
-22.288574 -6.5707245 51.692783 0 255 0
33.555542 -19.667633 43.930916 0 255 0
31.472229 -11.660576 67.14222 0 255 0
36.633301 -19.98719 44.719761 0 255 0
-21.713196 -9.2318497 43.893394 0 255 0
-13.718506 -14.57444 32.202915 0 255 0
9.6771851 -7.1035156 68.451973 0 255 0
29.690552 -10.691559 69.041641 0 255 0
-10.707764 -4.6858215 64.076828 0 255 0
-4.8042603 -4.5096436 68.013382 0 255 0
8.8710938 -18.82103 32.249386 0 255 0
13.273132 -7.6873016 68.736084 0 255 0
-22.17395 -6.4587631 52.053566 0 255 0
11.854858 -19.156647 32.930283 0 255 0
-21.337097 -9.5081863 43.225227 0 255 0
22.639221 -9.0732422 69.889923 0 255 0
34.243042 -17.622894 50.501278 0 255 0
28.128845 -10.022354 70.154907 0 255 0
31.020142 -11.284744 67.96846 0 255 0
11.248169 -7.3625183 68.533478 0 255 0
45.568176 -19.880234 50.132515 0 255 0
27.954895 -19.584541 40.880142 0 255 0
4.8816528 -6.3246002 68.015625 0 255 0
25.197937 -19.577682 39.304283 0 255 0
-17.016357 -12.534439 36.439369 0 255 0
-22.692932 -6.7769394 50.723949 0 255 0
-17.337402 -4.5647964 60.553013 0 255 0
5.5210571 -6.4231415 68.048485 0 255 0
-22.756531 -6.9377289 50.183445 0 255 0
21.299744 -19.432373 37.466988 0 255 0
14.643921 -19.22715 34.256111 0 255 0
31.169556 -14.347076 58.659607 0 255 0
45.09375 -18.399422 54.325665 0 255 0
41.138794 -18.100334 52.955162 0 255 0
-21.915894 -6.186676 52.949898 0 255 0
25.627991 -19.572891 39.524357 0 255 0
38.952148 -20.090141 45.622238 0 255 0
-18.360718 -11.761322 37.992893 0 255 0
35.856384 -17.825233 50.741127 0 255 0
-8.404541 -4.4306641 66.082123 0 255 0
34.770142 -17.692612 50.517052 0 255 0
-19.260071 -4.938858 58.264507 0 255 0
9.1384277 -6.9876328 68.380455 0 255 0
8.3255005 -18.721115 32.130363 0 255 0
35.287231 -17.769653 50.566837 0 255 0
-7.5224609 -4.3938675 66.68718 0 255 0
2.503418 -5.7605667 68.296188 0 255 0
-15.824036 -13.273582 34.824707 0 255 0
41.68396 -18.176758 52.999557 0 255 0
-4.8995361 -16.271217 31.96755 0 255 0
-9.8564453 -4.5201111 64.939758 0 255 0
-17.701599 -12.172508 37.0825 0 255 0
-21.626526 -9.2831879 43.630672 0 255 0
32.444214 -17.500946 49.724724 0 255 0
32.423706 -19.533463 43.514423 0 255 0
20.894043 -8.7782974 69.662666 0 255 0
-16.378967 -12.812241 35.882885 0 255 0
-22.632019 -6.6687164 51.012955 0 255 0
4.4250488 -18.051422 31.892691 0 255 0
-4.3661499 -4.4671402 68.249359 0 255 0
36.725281 -17.855988 51.096668 0 255 0
30.432251 -17.028 49.992249 0 255 0
37.350769 -17.90596 51.300346 0 255 0
-14.351868 -4.3507233 62.841427 0 255 0
18.101868 -19.279602 36.014126 0 255 0
30.383545 -10.91893 68.585228 0 255 0
20.466492 -19.340988 37.183407 0 255 0
39.644287 -18.021271 52.25803 0 255 0
40.694336 -20.125847 46.439949 0 255 0
-17.059021 -4.4659195 60.895222 0 255 0
-14.733459 -4.3127441 62.702362 0 255 0
-21.779236 -6.0616608 53.305035 0 255 0
45.378357 -20.311638 48.54303 0 255 0
45.249451 -18.878273 52.839596 0 255 0
-21.455505 -5.971344 53.756531 0 255 0
3.9519653 -17.950333 31.867134 0 255 0
-2.0281372 -16.764107 32.036594 0 255 0
-14.838257 -13.642609 34.168694 0 255 0
-17.543701 -4.5562134 60.317928 0 255 0
40.877747 -18.021858 52.91819 0 255 0
29.813843 -19.517105 41.981087 0 255 0
29.382568 -10.491211 69.254654 0 255 0
-18.745789 -4.7788849 58.939114 0 255 0
45.497131 -19.54287 50.928871 0 255 0
0.60015869 -5.2204056 68.733353 0 255 0
-22.707031 -7.2990723 48.962139 0 255 0
-19.798706 -5.1174698 57.281673 0 255 0
31.567749 -13.420074 61.560482 0 255 0
-21.057495 -5.7891083 54.499725 0 255 0
-22.816772 -6.9896088 49.82412 0 255 0
-13.526733 -4.4360352 62.964153 0 255 0
45.573242 -20.291809 48.662609 0 255 0
7.4734497 -6.6815491 68.211548 0 255 0
12.422729 -7.4686813 68.659958 0 255 0
30.807434 -11.04818 68.329636 0 255 0
-12.380798 -14.870934 31.782604 0 255 0
-22.539429 -6.5541992 51.286858 0 255 0
-15.901489 -4.4035034 61.669312 0 255 0
10.873291 -7.2298584 68.474976 0 255 0
23.196838 -19.472443 38.241226 0 255 0
0.90911865 -17.30835 31.996815 0 255 0
-12.784424 -4.5298767 63.070816 0 255 0
25.569885 -9.4158478 70.270531 0 255 0
-5.4649048 -16.121033 31.937183 0 255 0
31.295349 -11.674835 66.675308 0 255 0
10.257935 -18.931992 32.421715 0 255 0
18.354431 -19.24147 36.143337 0 255 0
1.3492432 -17.394928 31.975388 0 255 0
31.026184 -13.009293 62.446827 0 255 0
39.539062 -17.729729 52.9571 0 255 0
-13.021301 -4.4918365 63.031418 0 255 0
39.510986 -17.765411 52.819138 0 255 0
12.823547 -7.5141754 68.700928 0 255 0
-10.236084 -4.5040741 64.591461 0 255 0
-11.083008 -4.579895 63.870499 0 255 0
-1.1734619 -16.935516 31.90037 0 255 0
39.838745 -17.763779 53.006321 0 255 0
30.184998 -16.687164 50.725948 0 255 0
-20.211487 -5.2673798 56.500877 0 255 0
45.451843 -18.62677 53.593575 0 255 0
26.580933 -9.5512695 70.39119 0 255 0
20.240295 -19.298592 37.009758 0 255 0
31.213074 -11.739784 66.381958 0 255 0
45.730896 -20.21772 48.893696 0 255 0
30.763977 -12.804176 62.86528 0 255 0
38.643311 -17.959663 51.683132 0 255 0
31.246033 -13.088211 62.273991 0 255 0
45.382996 -19.096375 52.098152 0 255 0
-15.352478 -4.3166351 62.169312 0 255 0
11.465637 -19.045837 32.706905 0 255 0
31.428345 -11.362556 67.636749 0 255 0
-1.7409058 -4.7067184 68.819458 0 255 0
27.909973 -9.827095 70.290375 0 255 0
35.058594 -17.685722 50.443512 0 255 0
30.912781 -12.352699 64.316338 0 255 0
6.3845215 -18.342087 31.917122 0 255 0
-14.540405 -13.75161 33.857891 0 255 0
26.374207 -19.533104 39.79554 0 255 0
7.2419434 -6.6131744 68.168907 0 255 0
10.400513 -7.1215973 68.437584 0 255 0
36.467896 -17.85495 50.727573 0 255 0
11.022156 -18.994057 32.59124 0 255 0
18.264893 -8.3507462 69.217003 0 255 0
41.975952 -20.134644 46.944347 0 255 0
13.177185 -19.141373 33.378609 0 255 0
-11.216614 -15.022781 31.881502 0 255 0
30.517456 -15.90374 53.242836 0 255 0
-7.2294312 -4.2907028 66.902191 0 255 0
42.82782 -18.198471 53.327843 0 255 0
-17.847656 -4.5438232 60.003567 0 255 0
-2.3353271 -4.5692062 68.864098 0 255 0
22.427795 -19.43705 37.792809 0 255 0
22.91333 -19.437271 38.07185 0 255 0
-6.6838379 -4.2950058 67.190781 0 255 0
31.455688 -19.497215 42.806801 0 255 0
30.161255 -16.761322 50.401363 0 255 0
38.268311 -17.930496 51.506817 0 255 0
-11.798462 -14.936882 31.781549 0 255 0
42.753723 -20.115913 47.421677 0 255 0
43.663879 -18.142151 53.964268 0 255 0
31.588257 -11.502357 67.252441 0 255 0
-19.750305 -10.477692 40.792835 0 255 0
40.268433 -17.845528 52.908878 0 255 0
-22.751404 -7.1699295 49.149189 0 255 0
44.819946 -18.251541 54.292725 0 255 0
12.973145 -19.134247 33.249405 0 255 0
30.707581 -15.466789 54.651554 0 255 0
27.372559 -9.6697235 70.403473 0 255 0
-11.559448 -4.5431213 63.602318 0 255 0
30.330872 -16.371384 51.670792 0 255 0
17.430054 -19.224396 35.533363 0 255 0
43.974976 -18.144646 54.121429 0 255 0
-9.8162842 -15.15976 32.225632 0 255 0
-8.8446045 -15.318176 32.300262 0 255 0
8.4241333 -6.8021774 68.219604 0 255 0
-10.44397 -4.4922028 64.389999 0 255 0
-4.0662842 -4.3626251 68.45977 0 255 0
-20.461426 -5.3213043 56.087105 0 255 0
-17.286194 -12.332184 36.537498 0 255 0
-22.884338 -6.8718872 49.960064 0 255 0
-3.4958496 -4.3588409 68.794952 0 255 0
-21.202393 -5.7871552 54.235935 0 255 0
-15.373596 -13.396606 34.387295 0 255 0
31.862305 -19.48024 43.054176 0 255 0
23.562744 -9.0900574 69.953384 0 255 0
30.86731 -12.424789 63.99205 0 255 0
31.149902 -14.372238 58.216236 0 255 0
30.818359 -15.208847 55.473804 0 255 0
22.358093 -8.8893127 69.867386 0 255 0
-22.633423 -7.3225937 48.7188 0 255 0
20.922668 -19.313507 37.249397 0 255 0
30.640076 -15.629608 54.073849 0 255 0
-0.71643066 -16.991142 31.85144 0 255 0
37.066406 -17.862411 50.965778 0 255 0
31.125916 -11.860107 65.844711 0 255 0
16.192566 -19.191086 34.884026 0 255 0
19.416321 -8.4758377 69.411674 0 255 0
16.663879 -19.194611 35.13805 0 255 0
30.744629 -12.599358 63.361389 0 255 0
-21.938354 -8.6094055 45.170719 0 255 0
-14.119263 -14.20311 32.618378 0 255 0
12.48584 -19.108665 32.987419 0 255 0
-8.9247437 -4.3072205 65.785934 0 255 0
-13.986328 -14.323265 32.325294 0 255 0
-19.61908 -4.9476624 57.668327 0 255 0
-19.113159 -11.097733 39.204899 0 255 0
12.149963 -19.089622 32.848686 0 255 0
37.961731 -17.899048 51.352379 0 255 0
30.940308 -14.941818 56.323891 0 255 0
31.115601 -14.498161 57.776905 0 255 0
17.71759 -19.214783 35.670959 0 255 0
9.1303711 -18.768044 32.084274 0 255 0
-16.834961 -4.3348389 61.132771 0 255 0
-19.030823 -4.7531738 58.59145 0 255 0
16.037476 -7.9927063 68.918076 0 255 0
30.25238 -19.457176 42.148365 0 255 0
-14.309937 -4.2170334 62.940063 0 255 0
-0.30328369 -4.9529877 68.766647 0 255 0
7.3865967 -18.493042 31.907059 0 255 0
-21.843872 -8.7164078 44.875584 0 255 0
30.228088 -16.844559 50.092449 0 255 0
17.984253 -19.215485 35.805176 0 255 0
20.04126 -8.5452652 69.525703 0 255 0
31.43396 -11.562759 66.887711 0 255 0
-22.819336 -7.0319138 49.438892 0 255 0
-16.675171 -12.578598 36.061527 0 255 0
-19.001587 -11.189278 38.955975 0 255 0
14.245728 -7.6763153 68.82402 0 255 0
-22.141907 -8.1571732 46.387989 0 255 0
30.744141 -12.679337 63.070633 0 255 0
17.193787 -19.196564 35.388432 0 255 0
39.050903 -17.954727 51.76704 0 255 0
-12.848999 -14.714149 31.742773 0 255 0
-21.806641 -8.8157501 44.567841 0 255 0
-5.8651733 -15.975174 31.919693 0 255 0
15.957153 -19.177559 34.728584 0 255 0
44.330383 -18.151985 54.205284 0 255 0
-22.165649 -8.3419571 45.803383 0 255 0
45.521179 -18.491013 53.856621 0 255 0
1.8768311 -5.4684067 68.418488 0 255 0
30.905396 -12.855087 62.617874 0 255 0
13.593323 -7.5710373 68.754929 0 255 0
39.786438 -17.80838 52.629162 0 255 0
30.992188 -12.114197 64.925629 0 255 0
-19.352661 -10.889168 39.651199 0 255 0
39.711182 -17.725327 52.838261 0 255 0
-18.419373 -4.5932617 59.386948 0 255 0
30.797668 -12.492989 63.653248 0 255 0
-21.505371 -9.2858276 43.294701 0 255 0
43.056458 -18.171417 53.400341 0 255 0
44.061707 -20.128944 48.006161 0 255 0
-17.53418 -12.185913 36.7314 0 255 0
-6.9177856 -4.2365799 67.089241 0 255 0
0.61639404 -17.18869 31.933084 0 255 0
-18.710205 -11.439194 38.328671 0 255 0
34.444824 -19.648903 43.920921 0 255 0
32.845642 -17.431702 49.760548 0 255 0
-20.749939 -5.4109573 55.532948 0 255 0
41.302307 -18.051201 52.738361 0 255 0
-0.7722168 -4.8422318 68.772339 0 255 0
39.545959 -18.005096 51.863491 0 255 0
45.803833 -20.068459 49.17691 0 255 0
-7.9122925 -4.2136383 66.569557 0 255 0
13.647644 -19.093338 33.615932 0 255 0
-12.031067 -4.4922638 63.341373 0 255 0
-16.548767 -4.2950592 61.339203 0 255 0
-14.383789 -13.817184 33.547359 0 255 0
30.903931 -17.089645 49.664116 0 255 0
35.078308 -19.716248 44.059666 0 255 0
9.0148926 -6.8533173 68.262283 0 255 0
-13.653015 -14.464592 31.990471 0 255 0
-18.102661 -11.821533 37.484112 0 255 0
-22.361206 -6.3249969 51.791004 0 255 0
-13.304199 -14.579834 31.837399 0 255 0
-22.095581 -8.4359512 45.50684 0 255 0
-15.038818 -4.1693573 62.58353 0 255 0
30.579468 -16.997856 49.749214 0 255 0
35.172852 -17.652359 50.395653 0 255 0
24.315674 -9.1604919 70.034653 0 255 0
15.481445 -19.157387 34.45929 0 255 0
-16.147339 -12.959793 35.132832 0 255 0
-14.795044 -13.587784 33.989563 0 255 0
-22.122009 -6.1564178 52.426929 0 255 0
-22.487305 -7.4321442 48.326164 0 255 0
25.435059 -19.457062 39.263073 0 255 0
40.035706 -18.007629 52.093491 0 255 0
-21.644592 -5.8401489 53.654816 0 255 0
-18.382507 -11.650726 37.813705 0 255 0
33.734253 -17.469147 50.098625 0 255 0
19.362366 -19.204483 36.525215 0 255 0
-12.427429 -4.4578705 63.174961 0 255 0
-18.167358 -4.5157547 59.690575 0 255 0
14.569092 -19.107071 34.05785 0 255 0
-20.537537 -9.8892365 41.935944 0 255 0
-8.161377 -4.2042313 66.399826 0 255 0
-5.7984619 -4.22789 67.686234 0 255 0
36.254517 -17.805397 50.514584 0 255 0
-14.5979 -4.1356354 62.893242 0 255 0
27.447205 -19.473877 40.344017 0 255 0
-15.60144 -4.2477112 61.968601 0 255 0
40.011597 -18.035324 51.967724 0 255 0
12.869385 -19.092087 33.105034 0 255 0
-20.941223 -5.5220184 55.001862 0 255 0
33.32251 -17.452179 49.889427 0 255 0
-6.3720093 -4.2103729 67.394836 0 255 0
-3.5819092 -16.352165 31.976393 0 255 0
34.090637 -17.475075 50.255638 0 255 0
-9.1829224 -15.20472 32.24247 0 255 0
-21.314697 -9.4071579 42.923985 0 255 0
-16.287048 -12.828102 35.387371 0 255 0
40.052673 -17.778374 52.754177 0 255 0
11.847412 -7.2633591 68.560394 0 255 0
-2.5788574 -16.53022 31.984024 0 255 0
31.425842 -11.185432 67.872894 0 255 0
-22.797302 -6.5117035 50.874699 0 255 0
21.386902 -8.6771088 69.729836 0 255 0
29.185364 -10.236015 69.468987 0 255 0
-20.875488 -9.6980057 42.263084 0 255 0
23.608215 -19.399384 38.310059 0 255 0
-21.757141 -9.0597 43.697674 0 255 0
-21.807617 -8.9692917 43.944061 0 255 0
2.1324463 -17.464569 31.83073 0 255 0
-14.884033 -4.0998993 62.777588 0 255 0
-6.8117065 -15.704956 32.036102 0 255 0
4.1820679 -6.0219116 67.897522 0 255 0
3.4768677 -17.744957 31.742123 0 255 0
37.572205 -17.843231 51.087494 0 255 0
-1.1978149 -4.7135773 68.784042 0 255 0
18.992249 -19.154129 36.381573 0 255 0
4.7975464 -6.1417084 67.880188 0 255 0
-3.0397339 -4.3173294 68.926758 0 255 0
-20.703613 -5.3226166 55.680733 0 255 0
-19.285583 -10.925385 39.412647 0 255 0
-5.0895386 -4.2333069 67.993484 0 255 0
43.589905 -18.094086 53.764442 0 255 0
14.017395 -19.057724 33.784489 0 255 0
-14.196167 -14.061272 32.75605 0 255 0
30.745789 -10.81076 68.554474 0 255 0
15.451721 -7.8144073 68.878342 0 255 0
42.176025 -20.054451 46.947227 0 255 0
-2.6571655 -4.377037 68.917221 0 255 0
31.629822 -11.348495 67.409172 0 255 0
45.582153 -19.288841 51.231609 0 255 0
2.354126 -5.5433044 68.238358 0 255 0
-19.463989 -4.7909698 57.960258 0 255 0
-1.3261719 -16.792816 31.812244 0 255 0
-22.949341 -6.8053055 49.806931 0 255 0
-18.767944 -4.6009827 58.936268 0 255 0
-11.792419 -4.4262009 63.488533 0 255 0
21.795837 -19.332794 37.385731 0 255 0
45.440674 -18.873367 52.407303 0 255 0
9.8043823 -18.799973 32.096169 0 255 0
-8.5731201 -4.1664505 66.129356 0 255 0
-15.841248 -13.130798 34.601719 0 255 0
30.657349 -19.402565 42.266006 0 255 0
-7.902832 -4.1252594 66.632645 0 255 0
38.244385 -19.873375 45.200047 0 255 0
44.458801 -20.106079 48.070576 0 255 0
-16.868774 -12.432739 36.130623 0 255 0
-10.73938 -4.395401 64.16774 0 255 0
45.684875 -19.604271 50.301987 0 255 0
31.129395 -19.412308 42.496143 0 255 0
-9.348999 -4.2232208 65.487724 0 255 0
41.625671 -20.028366 46.663349 0 255 0
31.509827 -13.078865 62.019863 0 255 0
-16.007385 -4.2107239 61.681736 0 255 0
-18.565369 -11.495438 37.993275 0 255 0
30.335083 -16.857605 49.816124 0 255 0
-13.864624 -14.322021 32.067894 0 255 0
40.151367 -17.845917 52.446747 0 255 0
9.7290039 -6.889595 68.326675 0 255 0
-19.997559 -5.0114975 56.920536 0 255 0
30.291382 -10.612923 68.809814 0 255 0
-14.225708 -13.979485 32.888058 0 255 0
-22.267639 -6.1633453 52.085922 0 255 0
-10.017334 -15.040375 32.074623 0 255 0
-22.959717 -6.7054901 50.029533 0 255 0
29.400879 -19.393234 41.508137 0 255 0
-13.144653 -4.2873077 63.055443 0 255 0
3.1265259 -5.7318268 68.018204 0 255 0
-17.660522 -4.3512421 60.249046 0 255 0
22.735535 -8.8175888 69.90567 0 255 0
3.6629028 -5.8626785 67.925766 0 255 0
2.7817383 -17.559822 31.741875 0 255 0
32.478821 -19.355736 43.370052 0 255 0
13.158142 -7.3959198 68.703491 0 255 0
45.259583 -20.160271 48.277008 0 255 0
-11.279297 -4.3859482 63.796547 0 255 0
-17.943359 -11.875145 37.108208 0 255 0
-12.536194 -14.702385 31.60158 0 255 0
-22.890137 -6.5238876 50.574974 0 255 0
40.411926 -17.845863 52.521614 0 255 0
31.580872 -13.336319 61.180168 0 255 0
43.190186 -20.01503 47.501579 0 255 0
19.816956 -19.173782 36.59708 0 255 0
31.578796 -11.411888 67.040131 0 255 0
-3.0792847 -16.371216 31.943407 0 255 0
-16.712158 -12.488419 35.924381 0 255 0
28.490112 -9.8184052 70.109024 0 255 0
-17.110474 -12.302841 36.255329 0 255 0
34.673828 -17.484215 50.293713 0 255 0
-10.897766 -14.930161 31.819933 0 255 0
45.495911 -18.309998 54.007278 0 255 0
-14.281433 -13.869812 33.098396 0 255 0
40.075195 -17.992966 51.846119 0 255 0
-20.016418 -10.145523 41.146515 0 255 0
14.35144 -19.022728 33.878056 0 255 0
40.998596 -17.936798 52.538418 0 255 0
-21.98877 -5.8505402 53.097015 0 255 0
-7.4697266 -4.0776672 66.867325 0 255 0
-21.434753 -5.6500626 54.017624 0 255 0
-13.64209 -4.162941 63.036537 0 255 0
40.335876 -17.939651 52.120968 0 255 0
-19.244873 -4.6501923 58.311134 0 255 0
-19.736938 -10.410065 40.453625 0 255 0
-22.950317 -6.8079376 49.562569 0 255 0
37.001648 -17.790733 50.614052 0 255 0
-14.209473 -4.0457306 63.014748 0 255 0
37.351013 -17.790367 50.809551 0 255 0
28.899414 -9.969368 69.788574 0 255 0
-7.9115601 -15.373413 32.096264 0 255 0
9.1525269 -18.669258 31.869928 0 255 0
9.5462646 -6.8095551 68.261307 0 255 0
18.818665 -19.069748 36.214474 0 255 0
-7.3150635 -15.504135 32.028126 0 255 0
-14.837219 -3.9613571 62.889736 0 255 0
31.366943 -10.915329 68.304077 0 255 0
-21.900635 -5.7344742 53.407406 0 255 0
-22.097168 -7.7249451 47.221874 0 255 0
11.308167 -7.0778351 68.442688 0 255 0
36.756104 -19.717041 44.553535 0 255 0
-20.398987 -9.8671265 41.653152 0 255 0
7.6102295 -6.4964752 68.069916 0 255 0
6.4711914 -18.210999 31.688469 0 255 0
42.501221 -18.067345 52.887447 0 255 0
41.998596 -18.032135 52.692268 0 255 0
12.804932 -7.2804794 68.651878 0 255 0
40.389893 -17.979759 51.918858 0 255 0
10.803101 -18.842934 32.238014 0 255 0
-5.6032104 -15.893784 31.772135 0 255 0
32.869751 -19.310997 43.512245 0 255 0
31.664856 -11.171318 67.638489 0 255 0
19.597351 -19.111084 36.460281 0 255 0
-15.294739 -13.285828 34.113106 0 255 0
20.376221 -8.3939972 69.575912 0 255 0
45.699341 -18.427536 53.570698 0 255 0
13.403625 -18.988495 33.242523 0 255 0
-21.25061 -9.3728104 42.593975 0 255 0
-13.304565 -14.466263 31.639946 0 255 0
-5.1804199 -15.966751 31.736967 0 255 0
36.287415 -17.705078 50.326599 0 255 0
11.901062 -18.931458 32.534344 0 255 0
-14.752075 -13.514252 33.694275 0 255 0
-22.293213 -7.5043182 47.672459 0 255 0
26.230896 -9.2323151 70.355515 0 255 0
-1.9349976 -4.4067612 68.829971 0 255 0
25.328064 -19.342911 38.992065 0 255 0
-15.366394 -4.0007019 62.326992 0 255 0
31.622864 -11.015457 68.008316 0 255 0
26.93512 -9.3346558 70.431694 0 255 0
-18.353149 -11.546234 37.59079 0 255 0
30.906616 -10.682556 68.60891 0 255 0
22.277954 -8.6451187 69.84787 0 255 0
40.696533 -17.900681 52.22776 0 255 0
-8.9366455 -4.0371399 65.901917 0 255 0
-22.710205 -6.2176056 51.313843 0 255 0
-22.671265 -7.0391693 48.829823 0 255 0
-20.236938 -9.9391098 41.388885 0 255 0
-17.11731 -4.0935211 61.003235 0 255 0
-20.434021 -5.027359 56.242821 0 255 0
0.12109375 -16.944092 31.743797 0 255 0
40.921814 -19.874069 46.309685 0 255 0
-4.4191284 -16.079811 31.75318 0 255 0
23.816345 -8.8831177 69.96563 0 255 0
22.917847 -19.271889 37.766094 0 255 0
45.898376 -20.067993 48.578171 0 255 0
32.232788 -17.177162 49.51738 0 255 0
-11.881958 -4.2783356 63.426132 0 255 0
