ply
format ascii 1.0
comment PCL generated
element vertex 1495
property float x
property float y
property float z
element camera 0
property float view_px
property float view_py
property float view_pz
property float x_axisx
property float x_axisy
property float x_axisz
property float y_axisx
property float y_axisy
property float y_axisz
property float z_axisx
property float z_axisy
property float z_axisz
property float focal
property float scalex
property float scaley
property float centerx
property float centery
property int viewportx
property int viewporty
property float k1
property float k2
end_header
67.430023 -38.929813 -579.54382
67.43634 -39.494049 -580.90228
67.439262 -38.182438 -572.64948
67.470848 -39.33876 -580.56293
67.471207 -38.50621 -578.09967
67.472389 -38.178303 -573.9859
67.501076 -39.199116 -580.17694
67.523598 -38.208183 -576.7804
67.544479 -38.374294 -571.94177
67.569023 -38.322605 -572.93964
67.594322 -38.470196 -577.60284
67.650375 -38.36129 -577.08636
67.654381 -38.189812 -575.28784
67.70845 -38.265121 -574.99005
67.722618 -38.378319 -574.40186
67.730545 -38.546211 -572.23901
67.73307 -38.229031 -575.88892
67.73465 -38.512852 -572.68304
67.750099 -38.473423 -573.89331
67.765503 -39.15416 -579.30096
67.782433 -39.551285 -580.44861
67.797913 -39.013191 -578.6651
67.801613 -38.524105 -577.23975
67.802315 -38.970188 -578.50824
67.849052 -39.425636 -580.01166
67.863251 -38.388161 -576.64362
67.878532 -38.830284 -577.91284
67.906693 -38.35606 -576.29822
67.90995 -38.670414 -572.66693
67.910889 -39.356583 -579.6109
67.948021 -38.526878 -576.92542
67.958336 -39.098816 -578.51215
67.960732 -38.672432 -573.88873
67.966576 -38.360409 -575.90338
68.02684 -38.696014 -574.17126
68.047554 -39.353966 -579.1651
68.052841 -38.495914 -576.5141
68.054108 -38.427467 -575.74786
68.107216 -38.475945 -576.10736
68.114342 -38.783737 -573.82336
68.116737 -38.540207 -575.33295
68.120247 -38.663654 -576.89264
68.135681 -38.714767 -574.547
68.193283 -39.270378 -578.51373
68.269768 -38.621883 -575.82678
68.319038 -38.837742 -576.86609
68.330345 -39.084263 -577.59772
68.348335 -38.705414 -575.54504
68.357826 -38.758701 -576.45862
68.395393 -38.798702 -575.30652
68.442101 -38.805531 -576.18677
68.479599 -38.833637 -575.74683
68.516167 -39.07975 -577.09247
68.540985 -38.96833 -576.54834
15.319057 -82.861099 -635.41461
15.340793 -82.57209 -635.42029
15.419233 -82.21228 -635.37366
15.453278 -83.784081 -635.21002
15.498465 -83.423584 -635.47064
15.509744 -82.967461 -635.57391
15.52535 -82.662399 -635.58575
15.567055 -84.336594 -634.98749
15.570616 -82.380333 -635.55225
15.581478 -83.692146 -635.44043
15.664208 -84.030067 -635.3938
15.67917 -81.558212 -635.17395
15.719493 -81.875748 -635.36456
15.728071 -82.214325 -635.57635
15.730663 -84.543167 -635.05585
15.739902 -84.383255 -635.28723
15.741402 -82.77459 -635.69995
15.762053 -82.456894 -635.6629
15.767629 -83.358963 -635.70197
15.793261 -84.707123 -634.85065
15.810879 -83.748772 -635.68616
15.830033 -83.018974 -635.75311
15.857201 -84.123711 -635.63934
15.90694 -82.156189 -635.60089
15.9379 -84.672836 -635.23169
15.94556 -81.197815 -634.99835
16.000071 -84.38105 -635.70679
16.010426 -83.842278 -635.89355
16.015453 -84.822472 -634.89758
16.02054 -81.714149 -635.33496
16.024015 -82.570282 -635.7439
16.036461 -84.127502 -635.88928
16.062159 -83.4515 -635.88757
16.063992 -83.077393 -635.82959
16.125364 -84.63501 -635.65723
16.189608 -83.951843 -636.05518
16.204733 -83.645813 -636.03589
16.20505 -84.312012 -635.99384
16.211287 -82.114639 -635.59961
16.212301 -81.190964 -634.97028
16.272741 -84.897736 -635.35126
16.290657 -81.57843 -635.23309
16.321846 -84.597519 -636.00098
16.340986 -82.628708 -635.77374
16.343903 -83.4711 -636.05518
16.353304 -84.948112 -634.78198
16.366728 -84.840019 -635.82227
16.376709 -83.111412 -635.90546
16.386852 -83.731422 -636.14423
16.406054 -84.034851 -636.18127
16.455034 -84.366356 -636.18549
16.499743 -85.035065 -635.64648
16.5245 -82.111336 -635.56146
16.539577 -84.706207 -636.1286
16.541574 -84.9589 -635.94421
16.544779 -85.059875 -635.23627
16.573038 -83.462852 -636.10828
16.601627 -81.473671 -635.07019
16.635426 -83.758598 -636.21735
16.647383 -84.916611 -634.49396
16.654613 -82.738564 -635.78442
16.662958 -85.077316 -635.85565
16.672304 -84.065186 -636.27753
16.706707 -81.870171 -635.34784
16.718416 -84.389503 -636.29315
16.722992 -85.132919 -635.57263
16.730314 -83.033249 -635.90454
16.767656 -85.098282 -635.10242
16.770351 -84.920174 -636.11041
16.770653 -82.114067 -635.49957
16.771788 -80.873672 -634.5069
16.790176 -84.649208 -636.27277
16.842901 -81.056404 -634.6344
16.874865 -82.494133 -635.65253
16.892637 -85.102097 -635.88251
16.907808 -85.029259 -634.86243
16.933268 -83.760468 -636.2547
16.971067 -84.069855 -636.32269
16.982416 -83.474289 -636.15125
16.995054 -82.856529 -635.80017
16.997669 -85.15284 -635.56421
17.006258 -84.391098 -636.34454
17.022148 -84.698395 -634.18713
17.033106 -84.828476 -634.46277
17.068649 -57.394035 -636.42352
17.099592 -84.952072 -636.14496
17.193827 -84.716652 -636.3017
17.199116 -85.095222 -635.20374
17.200266 -55.322159 -636.54517
17.200352 -58.32132 -636.30811
17.232563 -82.453255 -635.53778
17.237091 -85.044724 -635.08313
17.248787 -83.231796 -636.01361
17.255547 -58.777958 -636.09534
17.280071 -82.109283 -635.29114
17.296019 -85.122589 -635.57397
17.328844 -57.212654 -636.58154
17.332218 -54.976215 -636.59363
17.354181 -84.074776 -636.33313
17.37426 -82.808762 -635.72668
17.376585 -81.780693 -634.9715
17.387905 -54.858391 -636.57788
17.403822 -85.077255 -635.9223
17.404156 -57.729099 -636.56543
17.408134 -84.773979 -634.67029
17.408587 -55.3461 -636.638
17.410604 -81.25135 -634.54486
17.42127 -84.940849 -636.1532
17.466553 -83.786507 -636.26147
17.495825 -54.706154 -636.52087
17.509985 -84.412987 -636.35803
17.512054 -85.052917 -635.51276
17.526419 -85.074173 -635.68787
17.532684 -80.95755 -634.24487
17.53825 -54.502991 -636.32306
17.560289 -56.980785 -636.70416
17.578934 -82.39502 -635.40356
17.581099 -54.856003 -636.62384
17.599375 -56.370735 -636.64313
17.602873 -58.943287 -636.00256
17.619886 -81.728806 -634.8548
17.63216 -55.093456 -636.69519
17.635708 -55.979202 -636.65466
17.637877 -82.087547 -635.14764
17.640787 -58.831875 -636.29163
17.659 -84.513336 -634.39038
17.663658 -83.503036 -636.12756
17.667273 -85.010536 -635.86792
17.672937 -84.361038 -634.10577
17.6947 -84.697189 -636.28491
17.704033 -55.420273 -636.72644
17.704376 -57.406918 -636.77808
17.705025 -84.911453 -636.10181
17.726656 -58.462276 -636.57172
17.73176 -54.660007 -636.50885
17.741381 -84.790329 -635.07544
17.805111 -81.388794 -634.51007
17.812946 -58.725693 -636.49243
17.853355 -55.14822 -636.72809
17.861599 -54.884426 -636.64056
17.865973 -83.984993 -633.4563
17.883287 -84.88575 -635.90204
17.886694 -58.908043 -636.32086
17.902565 -84.646042 -634.89728
17.943562 -55.374367 -636.75299
17.948812 -54.460072 -636.2702
17.955116 -56.015442 -636.77295
17.972178 -84.822411 -635.53839
17.973915 -55.673649 -636.76172
17.982418 -84.397217 -636.33026
17.982958 -56.353912 -636.84058
17.98728 -57.109329 -636.95209
17.990267 -58.513882 -636.68854
18.026787 -58.99892 -636.03125
18.02869 -84.683929 -636.1886
18.030537 -54.736195 -636.53705
18.035278 -84.439964 -634.53992
18.036716 -81.205238 -634.2439
18.049425 -83.380646 -636.01019
18.088552 -58.786148 -636.58844
18.106018 -84.097687 -636.31134
18.123224 -56.716843 -637.00745
18.129002 -55.087322 -636.67761
18.136564 -83.746086 -636.19659
18.142811 -84.707649 -635.33502
18.146082 -81.725128 -634.72235
18.158089 -83.14579 -635.82605
18.161917 -84.759766 -635.92474
18.201166 -58.947845 -636.38641
18.202452 -54.659901 -636.39459
18.22151 -84.749496 -635.66949
18.221788 -55.413021 -636.75195
18.230362 -58.332386 -636.86884
18.251451 -55.724491 -636.81274
18.257093 -56.06168 -636.89661
18.264565 -80.653854 -633.58997
18.282534 -83.259781 -635.88629
18.283825 -56.53981 -637.06567
18.291821 -59.005581 -635.62628
18.317881 -54.34375 -635.9942
18.318655 -84.552521 -635.09576
18.320929 -84.381905 -636.28839
18.345312 -54.152355 -635.79944
18.357981 -54.890484 -636.51074
18.371943 -84.592705 -636.12695
18.386433 -57.588974 -637.10791
18.393736 -84.674423 -635.85443
18.451605 -80.646439 -633.49426
18.459 -58.6175 -636.89508
18.466917 -56.293209 -637.08038
18.471024 -82.392273 -635.22076
18.473328 -55.480686 -636.76501
18.485582 -54.065495 -635.68628
18.489086 -55.184132 -636.64001
18.501127 -83.493797 -636.02783
18.503653 -81.478874 -634.35248
18.504057 -56.963779 -637.21082
18.508986 -80.290627 -633.17456
18.516352 -84.054039 -634.0246
18.545094 -84.583572 -635.59949
18.546432 -54.705811 -636.26306
18.548862 -81.780746 -634.664
18.550262 -58.977959 -636.46167
18.562136 -58.824768 -636.78406
18.574129 -56.085064 -637.04407
18.577478 -81.159523 -633.94891
18.578169 -84.094063 -636.28613
18.578682 -55.729298 -636.86871
18.605139 -58.346832 -637.07727
18.607601 -58.952549 -635.22784
18.611643 -80.789215 -633.5705
18.612686 -59.479118 -636.44489
18.617926 -59.501163 -636.18286
18.624807 -59.046803 -635.98651
18.659344 -84.511414 -635.97076
18.661322 -84.354134 -634.85468
18.66256 -84.363022 -636.19128
18.664188 -59.499519 -636.67596
18.666023 -59.547848 -636.4082
18.670351 -59.020664 -635.54468
18.678038 -55.018398 -636.48334
18.682325 -57.351543 -637.31036
18.687471 -59.409519 -636.22766
18.689293 -59.483826 -635.83044
18.694496 -59.415207 -636.64868
18.702297 -53.918247 -635.53455
18.729856 -83.738129 -633.57703
18.756147 -59.582859 -635.90753
18.760241 -59.458729 -636.84705
18.773022 -58.727459 -637.02515
18.781469 -56.681057 -637.28857
18.782219 -81.320992 -634.07123
18.790613 -80.192505 -632.94843
18.794796 -83.828377 -636.21149
18.797129 -59.394527 -635.73901
18.805563 -59.292809 -636.5708
18.807991 -59.077236 -636.26514
18.811226 -58.978901 -636.76599
18.818327 -84.419296 -635.24677
18.825283 -55.43932 -636.7254
18.830534 -84.461464 -635.57593
18.836521 -56.359867 -637.21466
18.836752 -58.496902 -637.1792
18.84343 -80.514847 -633.25433
18.851971 -59.284756 -636.09064
18.852724 -82.932076 -635.53741
18.858622 -59.337315 -636.91003
18.868189 -82.043816 -634.84814
18.870012 -82.668724 -635.34778
18.873343 -59.160168 -636.45862
18.884167 -54.608532 -636.03162
18.886015 -54.102386 -635.63806
18.890005 -80.90136 -633.62097
18.890055 -82.301315 -635.06671
18.894928 -84.037651 -634.31433
18.896709 -59.585899 -635.53467
18.897842 -59.089077 -635.73883
18.902132 -59.499859 -635.23053
18.912735 -84.078712 -636.23669
18.917025 -59.148392 -636.88623
18.918531 -59.661812 -636.3667
18.926414 -56.976173 -637.42542
18.928665 -59.406773 -635.29651
18.93926 -59.175339 -635.96411
18.949205 -81.758606 -634.54059
18.953289 -84.297325 -635.08868
18.958923 -56.104645 -637.14093
18.961878 -59.470062 -637.01031
18.964867 -58.998802 -635.17224
18.970028 -54.402378 -635.83838
18.986076 -83.094101 -632.62378
18.991291 -54.949902 -636.33081
18.994947 -84.267868 -636.08398
18.996031 -59.275581 -635.55096
19.005667 -58.887917 -637.1535
19.018391 -84.361923 -635.78668
19.020502 -55.17635 -636.51959
19.024292 -55.853485 -637.00854
19.028898 -53.593781 -635.27985
19.032661 -59.446568 -635.01837
19.041739 -57.485775 -637.52515
19.047016 -59.164505 -635.57971
19.052065 -57.173405 -637.5307
19.057295 -59.538685 -635.07904
19.062613 -83.706352 -633.8075
19.064589 -59.70042 -635.92755
19.070393 -84.330421 -635.50391
19.081554 -59.663448 -636.86554
19.095659 -81.389923 -634.10876
19.096573 -59.091717 -635.31299
19.102541 -59.230747 -637.17957
19.109818 -83.575409 -636.05695
19.127234 -83.830055 -636.18573
19.127596 -57.93248 -637.50909
19.131132 -58.503048 -637.38184
19.138643 -56.355202 -637.29144
19.140697 -59.196056 -635.2981
19.150419 -81.036613 -633.75464
19.159668 -56.659302 -637.43799
19.160709 -82.024872 -634.80005
19.165014 -80.198227 -632.87598
19.167782 -84.093544 -634.7572
19.170399 -55.407326 -636.68878
19.186769 -59.303783 -635.00848
19.189274 -82.403687 -635.12891
19.190636 -58.899067 -634.74609
19.197258 -80.531738 -633.25513
19.221249 -59.457642 -634.79742
19.221699 -59.045097 -634.99597
19.227102 -84.168739 -635.12494
19.230288 -84.213112 -635.89099
19.244194 -59.148975 -635.07068
19.252169 -53.734543 -635.38977
19.2535 -56.857906 -637.58167
19.256437 -84.037323 -636.11407
19.263281 -59.838337 -636.42865
19.265614 -57.3521 -637.6452
19.274752 -59.830181 -636.78693
19.275871 -83.917519 -634.45734
19.277809 -59.5485 -637.19873
19.31134 -59.121738 -637.37128
19.32345 -83.618195 -636.06226
19.324005 -59.774784 -637.04175
19.326759 -53.284767 -635.06445
19.328623 -59.574852 -634.88019
19.35074 -80.237747 -632.92389
19.351625 -80.829613 -633.58948
19.369251 -53.96302 -635.51318
19.37211 -59.770916 -635.67029
19.389996 -55.986565 -637.12366
19.3923 -81.85247 -634.6264
19.392687 -83.301003 -633.36023
19.39826 -58.548515 -637.52594
19.402206 -84.147171 -635.59589
19.404499 -56.693237 -637.57434
19.411602 -59.490635 -634.57031
19.419979 -83.805939 -636.11084
19.43091 -84.082451 -635.91187
19.431822 -81.295944 -634.02802
19.435074 -59.95575 -636.59906
19.466492 -59.110256 -634.74371
19.472353 -58.111027 -637.63831
19.473335 -59.364204 -634.55377
19.479227 -56.345203 -637.3717
19.479458 -59.96386 -636.94965
19.49155 -58.858509 -634.58588
19.505453 -56.979301 -637.68762
19.506987 -59.704308 -635.23413
19.510098 -59.818802 -637.21704
19.524656 -59.965893 -636.18378
19.532074 -57.264015 -637.72717
19.53301 -84.072762 -635.38483
19.533962 -83.109688 -633.12152
19.548622 -83.048012 -635.60248
19.561966 -83.656708 -636.01215
19.569174 -59.587547 -637.39868
19.575825 -83.43605 -635.86554
19.578348 -83.905838 -635.93268
19.579988 -84.031288 -635.72522
19.581377 -79.84745 -632.52173
19.583223 -59.472046 -634.34515
19.597954 -60.13121 -636.89099
19.60495 -83.953423 -635.0271
19.610285 -60.150509 -636.58813
19.612001 -83.760544 -636.01288
19.628195 -59.568745 -634.52069
19.649899 -53.345146 -635.1546
19.651712 -56.506508 -637.5249
19.660202 -82.055916 -634.86212
19.665054 -55.610104 -636.82404
19.666203 -55.934631 -637.09735
19.66717 -82.89299 -632.73334
19.672874 -82.528877 -635.24426
19.675837 -60.115368 -637.16003
19.694504 -57.599949 -637.76825
19.696844 -59.932922 -635.72638
19.700031 -54.236572 -635.63684
19.703024 -60.330364 -636.90344
19.70945 -79.598824 -632.34271
19.720566 -83.623337 -634.18225
19.733482 -59.263268 -634.48364
19.736639 -56.716236 -637.64661
19.739847 -54.527931 -635.84747
19.741325 -58.722748 -634.42389
19.741552 -60.177956 -636.15698
19.744373 -59.50288 -634.15051
19.746006 -60.437218 -636.53503
19.752357 -61.451794 -636.66455
19.757092 -59.128658 -637.63287
19.758173 -58.933998 -634.59204
19.761101 -61.731384 -636.61737
19.765957 -61.052864 -636.83911
19.766001 -80.561371 -633.43091
19.767385 -60.650116 -636.89856
19.7696 -83.80835 -634.65186
19.77433 -83.74855 -634.49536
19.775476 -60.772869 -636.60437
19.775524 -61.351894 -636.9632
19.776655 -61.108738 -636.55505
19.776695 -61.661983 -636.88672
19.778114 -59.676247 -634.93158
19.779961 -57.91938 -637.77625
19.784285 -83.89312 -635.47699
19.784975 -59.930965 -637.41046
19.785975 -56.976238 -637.73322
19.792099 -82.167213 -634.98151
19.793518 -54.0611 -635.51898
19.793604 -61.891113 -636.71057
19.803797 -52.858456 -634.70905
19.80887 -53.517197 -635.25891
19.816334 -61.396412 -636.38153
19.816761 -83.124847 -635.6358
19.818966 -57.269821 -637.78235
19.822248 -61.886154 -636.90259
19.828709 -60.383392 -636.20007
19.832987 -83.649864 -635.77112
19.833927 -59.40448 -634.16296
19.8379 -61.872353 -636.49915
19.839205 -60.825726 -637.13226
19.842197 -60.706654 -636.34564
19.851776 -61.663845 -636.35852
19.866142 -61.114941 -637.16925
19.866449 -60.472111 -637.24823
19.867609 -59.611359 -637.58954
19.867975 -83.382309 -635.74463
19.870964 -54.863827 -636.12482
19.880709 -62.012451 -636.7951
19.882801 -61.436016 -637.16998
19.883617 -58.661232 -637.77069
19.88563 -81.08857 -633.92438
19.88785 -59.128067 -634.58392
19.90803 -53.068241 -634.94244
19.910879 -79.972733 -632.69128
19.91242 -58.290577 -637.8147
19.914028 -56.434418 -637.5047
19.918419 -59.805473 -635.23755
19.923689 -80.597092 -633.49811
19.9254 -61.762032 -637.12579
19.928984 -60.17038 -635.80334
19.932165 -61.983124 -636.96338
19.933191 -62.018929 -636.58917
19.946974 -81.368134 -634.20129
19.950542 -59.551861 -634.07275
19.952442 -60.460865 -635.97876
19.95437 -59.992226 -635.57098
19.956789 -61.432686 -636.07617
19.997662 -60.836021 -635.9845
20.021372 -83.75959 -634.80554
20.022333 -60.824795 -637.38055
20.02787 -59.270359 -634.37079
20.028053 -79.064568 -632.24072
20.029478 -78.417763 -632.21442
20.032351 -61.704617 -636.05548
20.040287 -56.715229 -637.65485
20.043003 -61.922955 -636.28308
20.043877 -83.800621 -635.17255
20.044123 -79.802406 -632.50195
20.044355 -83.743103 -635.44922
20.059599 -61.430107 -637.36871
20.060244 -55.4902 -636.66547
20.061367 -53.570961 -635.25116
20.074516 -58.003277 -637.90619
20.079405 -60.393723 -637.49316
20.081356 -82.542839 -635.25452
20.084564 -56.990673 -637.75104
20.09156 -61.997383 -637.13861
20.097265 -55.979321 -637.11993
20.101435 -83.420013 -635.63074
20.103037 -62.145947 -636.80188
20.114975 -57.287197 -637.8244
20.11809 -80.652206 -633.55914
20.118258 -61.768337 -637.33392
20.12886 -60.657944 -635.73767
20.132917 -82.196541 -635.00635
20.139082 -80.468552 -633.36786
20.143986 -52.893532 -634.76898
20.144053 -58.991684 -634.57996
20.146029 -57.622784 -637.89404
20.153715 -61.580421 -635.77832
20.154495 -80.299103 -633.17657
20.160343 -58.352375 -634.00574
20.164742 -60.258144 -635.57318
20.173811 -59.159935 -634.5246
20.174713 -53.975586 -635.38824
20.175884 -56.269371 -637.35913
20.176142 -82.697884 -632.59003
20.178993 -83.068466 -635.51935
20.181517 -59.997948 -635.35437
20.187634 -53.169632 -635.01379
20.191257 -83.600807 -634.56879
20.194481 -83.711502 -634.97083
20.203253 -83.704033 -635.23102
20.20977 -61.276207 -635.59833
20.215103 -83.569267 -635.43732
20.216518 -82.501701 -632.17438
20.220942 -54.763397 -635.93976
20.231932 -82.77951 -635.36456
20.235975 -83.220802 -633.77026
20.238371 -62.164085 -636.49036
20.243702 -81.722633 -634.56061
20.244131 -60.868004 -637.5379
20.2589 -78.711929 -632.24927
20.262651 -54.454674 -635.65607
20.275801 -58.590546 -634.22101
20.277903 -83.250664 -635.50909
20.279341 -56.584011 -637.56653
20.28558 -61.830463 -635.86584
20.286673 -60.572041 -635.50208
20.290958 -81.245232 -634.11298
20.291624 -83.411415 -635.49139
20.293215 -53.653267 -635.22632
20.294773 -61.451054 -635.49011
20.30056 -60.330994 -637.65295
20.301054 -58.57999 -638.05396
20.307325 -62.27964 -637.0968
20.310089 -61.956081 -637.41626
20.312449 -59.840759 -635.07678
20.325541 -54.271183 -635.49951
20.330738 -59.333282 -634.02075
20.333271 -59.210342 -638.01642
20.33427 -53.266319 -635.03772
20.336958 -61.655918 -635.55713
20.345346 -59.859524 -637.83514
20.347456 -57.04565 -637.76459
20.351801 -59.717609 -634.74628
20.356792 -83.431328 -634.27911
20.361303 -59.247318 -634.27917
20.361958 -83.57888 -635.013
20.37611 -79.341682 -632.25348
20.37672 -59.616833 -634.24158
20.393557 -59.11132 -634.53784
20.399748 -62.369213 -636.75397
20.414688 -62.299362 -637.40381
20.421068 -62.092354 -636.1701
20.42458 -52.8283 -634.68695
20.42523 -58.983646 -634.56598
20.429083 -60.288727 -635.28265
20.430456 -78.08696 -632.15649
20.439072 -58.263134 -633.85681
20.448631 -57.306438 -637.87061
20.448996 -60.026714 -635.1864
20.455103 -55.557415 -636.65045
20.457825 -59.638943 -637.99066
20.462017 -78.401161 -632.24475
20.463697 -55.982849 -637.04572
20.467417 -62.616291 -637.23004
20.46838 -77.700798 -631.89288
20.475412 -79.967857 -632.7149
20.476883 -83.018127 -635.36279
20.47814 -80.490974 -633.37335
20.484524 -60.980377 -635.19604
20.485867 -53.08358 -634.85571
20.491476 -82.192329 -634.96112
20.494303 -57.626904 -638.04504
20.495602 -61.292892 -635.16974
20.496782 -62.612782 -637.40411
20.49683 -57.880535 -638.1142
20.498194 -61.223789 -637.6449
20.498533 -61.675346 -637.63593
20.499414 -83.353203 -635.25305
20.500551 -62.562088 -636.92603
20.501196 -58.203194 -638.15863
20.503418 -83.474327 -634.58698
20.507521 -56.515686 -637.4682
20.508173 -83.148949 -633.77948
20.509975 -60.668453 -635.1983
20.514006 -52.435326 -634.31683
20.530939 -82.070023 -631.61499
20.537762 -62.036449 -637.64795
20.542524 -58.638268 -638.18689
20.548367 -61.524063 -635.17688
20.548664 -62.357075 -636.48254
20.567211 -60.52758 -637.73633
20.567406 -83.290031 -634.14526
20.569391 -59.126808 -638.15515
20.570887 -54.095669 -635.31201
20.573 -59.054367 -634.49286
20.58013 -59.152679 -634.35199
20.580915 -53.390419 -634.99805
20.583862 -59.923122 -634.97937
20.58828 -77.507149 -631.82593
20.597466 -54.740597 -635.79034
20.599409 -83.440163 -634.84888
20.612677 -58.889404 -634.38159
20.613832 -58.196896 -633.66602
20.627392 -62.972679 -637.20044
20.630779 -57.486187 -638.00311
20.632774 -59.462864 -638.12177
20.637566 -62.942375 -637.51941
20.638165 -62.510883 -637.72064
20.644108 -60.172302 -635.05511
20.646231 -62.564098 -636.6413
20.652208 -59.350269 -633.46997
20.657919 -82.432961 -632.43945
20.658566 -59.610584 -633.77545
20.668108 -61.657146 -635.18372
20.678799 -82.541061 -635.16998
20.680882 -59.240688 -633.9212
20.693424 -56.986355 -637.68329
20.702209 -77.693192 -632.04443
20.704149 -82.677124 -632.93286
20.716618 -59.712818 -634.30481
20.718184 -59.84264 -634.72412
20.718767 -58.470505 -633.83179
20.718859 -58.073982 -638.21539
20.723177 -81.267982 -634.1308
20.727842 -81.969521 -634.76031
20.732943 -62.112846 -637.84735
20.735563 -56.084251 -637.03467
20.740936 -62.385345 -637.86719
20.746372 -55.160091 -636.16266
20.748604 -59.036701 -634.21094
20.749044 -57.714516 -638.11719
20.750628 -63.47266 -637.42841
20.755215 -58.846767 -634.18567
20.762537 -59.619591 -633.4057
20.765333 -62.909485 -636.78864
20.766836 -63.526318 -637.20264
20.770588 -82.807426 -635.24829
20.774439 -53.861946 -635.10992
20.775242 -58.308022 -633.51086
20.775425 -61.347847 -634.85211
20.776596 -62.355213 -636.24341
20.777067 -58.627956 -638.26105
20.778746 -83.31073 -634.96576
20.779005 -61.406624 -637.79382
20.782333 -54.324692 -635.36176
20.787575 -61.74596 -637.84381
20.791134 -58.690472 -633.96613
20.792276 -77.780861 -632.14825
20.803619 -57.306019 -637.86774
20.804077 -55.562904 -636.54352
20.805538 -83.323586 -634.58282
20.805988 -60.041264 -634.82507
20.80715 -63.227097 -637.7608
20.817331 -61.54504 -634.93573
20.819778 -63.472073 -637.02087
20.821732 -60.338123 -634.82928
20.829222 -58.578274 -633.54462
20.829472 -53.404438 -634.85663
20.83832 -63.713329 -637.37781
20.845196 -78.370659 -632.25452
20.852896 -83.100159 -635.16437
20.854267 -62.08036 -635.7984
20.861052 -76.536949 -631.65613
20.861099 -61.075439 -634.70465
20.861504 -63.666889 -637.60083
20.865353 -61.741806 -635.15906
20.869345 -59.737049 -638.15161
20.87088 -58.868427 -633.89935
20.874308 -59.302582 -638.23584
20.875994 -62.674301 -636.4469
20.884453 -60.212326 -637.99567
20.888124 -82.332611 -635.03662
20.904985 -63.718529 -637.10199
20.908392 -62.50079 -638.00769
20.914373 -60.839569 -637.8374
20.919052 -56.529335 -637.29205
20.919399 -59.910004 -634.5365
20.920551 -77.335876 -631.98798
20.921232 -58.929813 -633.41553
20.923458 -59.087204 -633.80029
20.924215 -76.737076 -631.80139
20.924648 -62.192966 -638.01428
20.92942 -52.946716 -634.61115
20.933889 -57.605869 -638.05359
20.937216 -62.977127 -637.9873
20.938395 -62.306938 -636.0672
20.939245 -62.949516 -636.56006
20.95528 -59.233551 -633.54681
20.955523 -79.042595 -632.21649
20.97311 -52.351021 -634.2359
20.976885 -80.154015 -632.93781
20.978952 -58.327084 -638.25745
20.97949 -60.181156 -634.5965
20.97974 -59.721897 -633.82861
20.98069 -60.830891 -634.50751
20.985502 -83.072029 -633.9104
20.986353 -54.134731 -635.14673
20.988174 -81.825996 -631.5462
20.991484 -80.645241 -633.46948
20.992104 -81.509331 -634.36938
20.994844 -57.957523 -638.17194
20.99642 -61.379406 -634.646
20.996965 -63.626499 -637.87689
21.000076 -82.567322 -635.16437
21.007158 -59.819859 -634.23096
21.013828 -81.224434 -634.09802
21.015875 -79.812767 -632.52838
21.016178 -63.399929 -637.98926
21.020233 -63.511684 -636.75397
21.020842 -63.999825 -637.19312
21.026436 -59.223301 -633.3382
21.027109 -63.916767 -637.72272
21.027609 -62.104244 -638.07477
21.029863 -61.463757 -637.93988
21.030741 -56.936375 -637.52789
21.030794 -64.081558 -637.49139
21.030886 -77.851929 -632.23047
21.038183 -61.64386 -634.8595
21.044823 -81.849396 -634.70099
21.047817 -62.052284 -635.56219
21.049391 -55.242676 -636.11456
21.055716 -59.133102 -633.56537
21.057203 -83.15403 -634.16669
21.057678 -51.908367 -633.89838
21.058537 -83.214478 -634.84979
21.064995 -59.142212 -633.40118
21.07082 -58.869675 -638.26855
21.072412 -83.223869 -634.46649
21.073967 -76.885857 -631.97571
21.082443 -82.198013 -632.42279
21.088545 -59.16201 -638.2785
21.090345 -64.154778 -637.64117
21.090982 -53.767471 -634.86194
21.091049 -59.716419 -633.27972
21.095184 -59.199425 -633.49005
21.096491 -62.4636 -636.04529
21.09988 -53.140408 -634.58643
21.100943 -56.062233 -636.83264
21.103672 -77.117378 -632.05316
21.104818 -76.722839 -632.00146
21.109467 -54.682911 -635.51361
21.111181 -77.44442 -632.1557
21.114166 -82.816681 -635.18604
21.115686 -52.540886 -634.33118
21.117304 -62.297527 -635.82318
21.118896 -59.454037 -638.28223
21.12344 -55.677971 -636.50238
21.136986 -76.275879 -631.55225
21.137571 -60.28413 -634.27783
21.137802 -64.245811 -637.28656
21.138058 -61.178551 -637.9516
21.140017 -60.006073 -634.2287
21.140085 -57.492725 -637.88007
21.142633 -64.125191 -637.02557
21.146151 -63.923149 -636.84698
21.155584 -59.875507 -634.01166
21.158968 -62.759979 -638.17346
21.160025 -82.280151 -635.04962
21.160997 -76.450935 -631.83881
21.161655 -63.479622 -638.08813
21.175734 -60.63485 -638.00214
21.182415 -76.6222 -632.00323
21.184126 -81.534027 -634.44434
21.191854 -80.335526 -633.13586
21.198858 -80.757446 -633.56635
21.205791 -63.784561 -637.99811
21.208624 -61.634525 -634.66748
21.223501 -82.68634 -633.33179
21.223545 -83.031929 -635.05737
21.226067 -60.426731 -634.07111
21.229662 -60.114532 -638.23059
21.236971 -62.663609 -636.00262
21.238708 -57.840279 -638.04663
21.241789 -60.945835 -638.00494
21.245512 -64.157722 -637.85754
21.246916 -62.243073 -635.61401
21.249033 -58.23764 -638.159
21.250483 -60.811577 -634.02673
21.251709 -56.394844 -637.01239
21.260374 -61.162266 -634.13055
21.265299 -59.878731 -633.62122
21.269337 -54.452847 -635.24707
21.270683 -59.803947 -633.04395
21.271873 -64.499237 -637.57715
21.280048 -83.181641 -634.64233
21.282194 -82.860306 -633.68634
21.284988 -59.814072 -638.33258
21.291704 -61.412663 -634.2688
21.297649 -81.290543 -634.23016
21.302158 -58.93396 -638.25403
21.302782 -64.470734 -637.1488
21.313618 -83.134834 -634.87305
21.318085 -54.077095 -634.91827
21.323732 -62.028641 -635.17224
21.325048 -53.529465 -634.56189
21.328703 -81.646866 -634.63831
21.333256 -64.056313 -636.66241
21.335371 -82.383507 -632.92712
21.335371 -59.819168 -633.26843
21.336721 -62.984184 -636.09082
21.34231 -76.798256 -632.12933
21.355995 -59.951328 -632.9585
21.360947 -58.616619 -638.18439
21.363451 -64.445702 -637.89069
21.364534 -59.192783 -638.29803
21.369286 -60.15831 -633.64093
21.372948 -52.77734 -634.32098
21.373571 -55.849899 -636.50995
21.373886 -81.935791 -634.92212
21.377144 -82.490692 -635.16669
21.382107 -64.684708 -637.81311
21.39003 -76.551598 -632.06775
21.394842 -64.438866 -636.88684
21.395632 -61.641689 -634.36993
21.397896 -64.876129 -637.60767
21.40457 -82.092873 -632.51978
21.405771 -59.518936 -638.38428
21.406652 -54.989601 -635.65668
21.407814 -63.526093 -638.19275
21.410778 -57.266052 -637.5589
21.414883 -59.902103 -633.12073
21.415331 -60.66864 -633.59137
21.419743 -77.12587 -632.21454
21.422842 -77.822586 -632.25928
21.42499 -83.100372 -634.42139
21.425556 -52.23579 -634.06158
21.426172 -64.868629 -637.73224
21.427082 -60.019905 -633.36707
21.428961 -62.441143 -635.56177
21.428965 -60.964203 -633.69727
21.431854 -64.794159 -637.33417
21.432894 -63.151604 -638.28149
21.432943 -52.552471 -634.21594
21.435854 -81.291504 -630.78101
21.436996 -77.4384 -632.25183
21.438858 -60.713116 -638.17517
21.447208 -57.78331 -637.86047
21.448887 -81.854446 -632.12854
21.450125 -83.108505 -634.72821
21.459146 -75.983047 -631.31775
21.463196 -58.076202 -637.98883
21.467543 -62.713932 -638.33539
21.470507 -82.782143 -635.12616
21.471409 -76.334587 -631.92529
21.473398 -79.319168 -632.24713
21.47402 -63.880791 -638.13251
21.474365 -51.898514 -633.83936
21.477848 -82.987312 -634.15051
21.482691 -60.687496 -633.3739
21.483503 -57.564396 -637.71588
21.484171 -82.126358 -635.0885
21.488241 -64.556442 -638.00854
21.491488 -55.281609 -635.89709
21.492205 -60.476009 -633.04254
21.501511 -62.207371 -635.13788
21.506733 -61.350475 -633.84033
21.507109 -81.426613 -634.50665
21.507193 -53.683819 -634.5094
21.510073 -80.759674 -633.56616
21.510464 -63.201706 -635.9715
21.513931 -82.979683 -634.92792
21.521328 -81.125275 -634.06891
21.522911 -79.588646 -632.35638
21.525232 -76.082985 -631.62946
21.537846 -64.24501 -638.10266
21.554485 -64.820549 -637.94592
21.563839 -61.450871 -638.242
21.57457 -65.022285 -637.61969
21.581787 -60.724697 -632.62451
21.590544 -62.070595 -638.37476
21.593864 -62.742226 -635.52338
21.594826 -61.77203 -634.17004
21.59642 -61.091343 -633.40149
21.599125 -58.470001 -638.02509
21.604324 -80.165039 -632.93915
21.60574 -59.988617 -638.52228
21.611021 -78.643745 -632.19409
21.61739 -60.878922 -633.04028
21.620516 -82.863289 -635.01678
21.624212 -82.159485 -632.78436
21.629679 -63.814148 -636.16974
21.631218 -58.898819 -638.17065
21.631371 -81.598816 -634.81281
21.634653 -59.487881 -638.48425
21.634884 -81.546532 -631.60211
21.643248 -53.400703 -634.32281
21.645353 -82.985291 -634.5708
21.646908 -64.143761 -636.34338
21.648331 -65.041451 -637.21967
21.654137 -52.310783 -633.99231
21.655632 -62.304329 -634.94409
21.660244 -64.591171 -636.62769
21.665493 -55.610157 -636.08856
21.666586 -57.295197 -637.40918
21.671818 -53.86557 -634.55365
21.674414 -63.052391 -638.38159
21.678373 -59.272308 -638.35748
21.68421 -62.348011 -638.45801
21.686966 -64.996246 -636.99133
21.692842 -61.471981 -633.58453
21.695309 -57.96846 -637.73895
21.697092 -61.058487 -632.71106
21.703871 -65.070717 -637.94647
21.705919 -54.47036 -635.0741
21.712824 -59.783787 -638.59521
21.71343 -82.145203 -635.16187
21.716587 -77.153954 -632.30243
21.72064 -61.110565 -632.99512
21.725355 -77.804321 -632.26025
21.728563 -60.871109 -638.34967
21.737562 -62.49144 -635.02631
21.737858 -61.172031 -638.32532
21.738226 -82.468819 -635.16278
21.740223 -61.362469 -632.56213
21.741642 -53.652035 -634.38824
21.744139 -77.467194 -632.29761
21.7481 -63.744583 -638.27716
21.749559 -76.113983 -631.85681
21.750267 -80.056877 -632.79926
21.754221 -64.000633 -638.25031
21.757391 -51.848228 -633.73004
21.758507 -63.316669 -635.61047
21.758848 -61.34058 -633.26111
21.759882 -64.514908 -638.21729
21.763107 -60.307274 -638.54871
21.767136 -61.831936 -632.47791
21.767668 -59.608719 -638.57849
21.772253 -54.781254 -635.30176
21.772879 -82.659729 -635.08264
21.773575 -52.919537 -634.12866
21.789021 -64.468513 -636.37488
21.792149 -64.889954 -638.17633
21.793083 -81.663589 -635.01648
21.797388 -61.543034 -632.76544
21.799988 -81.828476 -635.10547
21.800106 -52.130817 -633.81171
21.800554 -61.775047 -632.6391
21.803217 -62.464745 -638.53107
21.805948 -81.048981 -634.0058
21.811111 -61.397526 -632.99603
21.812622 -63.719109 -635.79767
21.812698 -55.164368 -635.58789
21.821321 -62.393421 -634.6499
21.826529 -82.785164 -633.91608
21.832939 -62.746731 -635.05823
21.838982 -64.894157 -636.67841
21.84656 -65.293777 -637.76587
21.848316 -81.366516 -634.63629
21.858727 -58.490898 -637.83752
21.860348 -59.497822 -638.54688
21.862259 -60.081215 -638.63873
21.862469 -58.809944 -638.00226
21.866055 -62.062054 -633.93597
21.866665 -61.996616 -632.29767
21.874159 -61.720207 -633.4563
21.877226 -80.881668 -633.74249
21.877872 -81.510445 -634.91193
21.884689 -62.699997 -638.5462
21.891809 -81.118683 -630.89465
21.903072 -65.221756 -638.12933
21.91065 -64.316521 -636.07739
21.916622 -61.83102 -632.82025
21.93045 -82.846367 -634.48083
21.931715 -61.704746 -633.01068
21.93601 -61.974289 -638.58734
21.936317 -76.867447 -632.36194
21.940584 -76.55101 -632.28503
21.947893 -82.830109 -634.18457
21.949837 -61.736305 -633.19843
21.953728 -78.360794 -632.20673
21.954464 -61.37463 -638.47388
21.96534 -81.554558 -631.99774
21.971888 -59.388176 -638.41949
21.972252 -56.969002 -636.99561
21.973253 -64.136955 -638.34015
21.974182 -59.78125 -638.64429
21.976366 -57.373268 -637.23315
21.976503 -65.436028 -638.00262
21.979939 -59.143505 -638.18506
21.980644 -60.812958 -638.52118
21.983807 -81.617752 -635.05432
21.98727 -63.862282 -635.50745
21.992886 -81.200546 -634.31995
21.993374 -82.37925 -635.11285
21.997942 -82.162964 -635.16229
22.000023 -62.900219 -634.78662
22.000034 -77.224083 -632.38751
22.000601 -64.681549 -636.27161
22.00561 -65.069405 -636.75055
22.014427 -81.787163 -632.48108
22.016191 -62.068447 -632.68695
22.020233 -78.017822 -632.25513
22.020569 -53.203403 -634.09052
22.028753 -62.257435 -633.7821
22.030357 -76.264549 -632.15942
22.033293 -64.238892 -635.76434
22.038189 -58.785007 -637.85529
22.040615 -62.682961 -634.47095
22.041241 -65.007217 -638.36316
22.043064 -65.255066 -638.30164
22.045904 -52.493584 -633.76288
22.049448 -52.184151 -633.65936
22.052122 -81.845749 -635.13885
22.055243 -62.164524 -632.32831
22.055294 -65.414688 -637.422
22.057161 -55.004948 -635.34534
22.066278 -77.562248 -632.35175
22.075048 -62.096218 -633.07068
22.077875 -65.549255 -638.01611
22.078056 -81.444191 -634.87946
22.086847 -82.504204 -633.60596
22.089638 -62.392654 -638.71667
22.095253 -60.346832 -638.68158
22.099131 -64.501266 -635.91144
22.099216 -65.555977 -637.80548
22.100925 -82.664749 -633.97162
22.103395 -65.460228 -638.20483
22.107134 -60.043854 -638.70337
22.110067 -75.463791 -631.02008
22.12019 -82.473976 -634.9165
22.122944 -82.681526 -634.61407
22.123474 -63.879673 -635.15967
22.123554 -63.574841 -634.94623
22.12837 -80.709305 -633.52826
22.132441 -80.282768 -633.09198
22.13389 -82.274727 -633.29242
22.144041 -81.075272 -634.02435
22.160063 -59.083843 -637.99915
22.160934 -62.70435 -634.02386
22.163057 -81.323448 -634.62024
22.165384 -82.223 -635.06525
22.170149 -58.159939 -637.37683
22.171961 -57.638042 -637.19891
22.173265 -62.508713 -633.60901
22.175274 -65.374146 -637.12372
22.176199 -63.313599 -638.51917
22.177305 -58.489254 -637.50177
22.190109 -76.682281 -632.48895
22.194447 -64.952606 -636.39209
22.195503 -81.307495 -631.62994
22.197508 -60.715733 -638.65759
22.198427 -62.941448 -638.64551
22.203991 -62.35458 -632.67664
22.205139 -52.868744 -633.81549
22.206072 -57.258957 -637.02124
22.208408 -81.593452 -635.01923
22.208805 -64.615692 -638.49377
22.212934 -77.014542 -632.53815
22.216154 -65.261986 -638.42719
22.217003 -82.673965 -634.35724
22.226292 -78.689789 -632.19098
22.229773 -56.619289 -636.5675
22.229963 -64.729355 -636.00464
22.233248 -80.801605 -630.52112
22.233301 -53.520885 -634.14136
22.239645 -81.981415 -635.08423
22.247601 -76.343048 -632.35919
22.248619 -51.957115 -633.45886
22.250721 -75.725372 -631.6554
22.252028 -76.076004 -632.10974
22.257284 -77.326927 -632.50476
22.264366 -75.273544 -630.85852
22.271076 -81.857529 -632.78821
22.278271 -59.878357 -638.64368
22.280218 -65.635384 -637.54297
22.281271 -59.667049 -638.52972
22.282627 -79.017311 -632.18359
22.283722 -65.635727 -638.21167
22.284952 -62.694988 -638.78589
22.285727 -64.538986 -635.5954
22.286671 -56.227364 -636.20062
22.290794 -81.756378 -635.06531
22.294329 -62.639614 -633.04663
22.297689 -60.165813 -638.71747
22.302761 -81.452454 -634.80273
22.304144 -65.061462 -638.53424
22.304377 -65.509331 -638.3689
22.305187 -82.48127 -633.82648
22.30759 -54.629337 -634.96527
22.314137 -65.260735 -636.75781
22.314804 -75.483917 -631.29742
22.316011 -53.851585 -634.31201
22.321085 -59.491837 -638.30023
22.324127 -77.842278 -632.3761
22.328398 -62.461311 -632.1817
22.329905 -75.882347 -631.93335
22.334227 -82.139046 -633.25183
22.33515 -63.537777 -634.36328
22.338133 -82.465309 -634.60376
22.340742 -82.56723 -634.12164
22.341791 -61.034008 -638.71033
22.344193 -81.370094 -634.60712
22.345861 -77.537628 -632.47986
22.346237 -53.122192 -633.85724
22.348742 -55.884434 -635.87006
22.354273 -81.285141 -634.31958
22.354763 -80.944214 -633.75977
22.354824 -78.367546 -632.25024
22.359249 -57.211628 -636.85864
22.364828 -54.190372 -634.56219
22.366854 -65.759659 -638.01099
22.367645 -82.159523 -634.84546
22.370596 -64.375656 -635.10529
22.372448 -63.751865 -638.51648
22.372969 -63.859222 -634.57031
22.380939 -55.477898 -635.53021
22.382256 -61.381802 -638.80542
22.386133 -76.502861 -632.61914
22.393759 -64.820702 -635.94244
22.394962 -62.685123 -632.45453
22.39674 -58.798832 -637.50934
22.397511 -64.197281 -634.8667
22.404415 -81.864288 -634.94806
22.405397 -81.651604 -634.88403
22.406559 -60.483322 -638.72955
22.410652 -63.999756 -638.53845
22.416111 -52.645344 -633.48376
22.417782 -76.825882 -632.75726
22.41844 -64.451828 -635.14203
22.422356 -59.190582 -637.85577
22.423693 -81.144218 -634.00629
22.424107 -63.293278 -633.60278
22.424227 -57.500397 -636.93695
22.424965 -82.491486 -634.32965
22.43198 -63.551872 -634.01678
22.435133 -58.199894 -637.14331
22.436193 -76.27803 -632.50568
22.443577 -65.597252 -637.15173
22.448952 -65.813187 -637.61823
22.451988 -77.192848 -632.73547
22.462687 -61.970852 -639.00916
22.467104 -80.655792 -633.47571
22.468288 -82.418907 -634.06531
22.469582 -62.912445 -632.47339
22.471375 -77.497284 -632.60858
22.482748 -58.496658 -637.24432
22.486473 -79.780067 -632.49762
22.488169 -56.922009 -636.58636
22.49402 -81.533455 -634.56458
22.498798 -81.573677 -632.50397
22.499557 -61.669304 -638.99139
22.499653 -63.571606 -638.62335
22.505766 -81.752319 -632.83911
22.513348 -65.711159 -638.37061
22.526804 -75.94474 -632.18616
22.530397 -65.244888 -636.52429
22.531311 -82.252762 -634.39911
22.533802 -64.649384 -635.37415
22.533966 -82.177917 -633.5415
22.538994 -64.253036 -638.64099
22.540606 -75.640091 -631.79816
22.542198 -66.001701 -638.02734
22.545683 -67.167015 -637.66876
22.547573 -76.594879 -632.90625
22.548517 -67.370094 -638.04297
22.548883 -81.882774 -634.62512
22.552286 -63.514267 -633.39624
22.553392 -76.309341 -632.72266
22.55834 -67.054909 -638.06305
22.559731 -62.229671 -639.07404
22.563892 -60.158867 -638.65222
22.568699 -58.281746 -637.02765
22.573454 -59.015415 -637.53455
22.578484 -53.626347 -634.02966
22.578871 -81.290115 -634.07758
22.580793 -55.778984 -635.65289
22.583872 -63.925781 -634.07404
22.587801 -57.490871 -636.74927
22.589231 -53.217117 -633.75378
22.589878 -52.801994 -633.4436
22.593122 -67.394463 -637.62085
22.593439 -67.586182 -638.09283
22.594576 -66.843346 -637.53772
22.595497 -66.100456 -637.58307
22.598879 -64.322845 -634.61053
22.599087 -67.129883 -637.15125
22.599173 -66.395363 -637.87305
22.599686 -60.495575 -638.73993
22.600256 -67.322914 -638.3786
22.60553 -67.551529 -638.35468
22.605848 -75.268333 -631.36481
22.607714 -65.888779 -637.29407
22.607998 -52.492577 -633.27429
22.61208 -54.16177 -634.41205
22.612301 -78.480957 -632.2702
22.612862 -82.222435 -633.92896
22.617058 -74.608162 -630.56671
22.618547 -76.048859 -632.50861
22.622149 -56.61475 -636.23743
22.623966 -79.555908 -632.31921
22.627243 -74.807411 -630.91309
22.62751 -63.187073 -631.95172
22.63579 -59.709503 -638.22638
22.641277 -78.151543 -632.41083
22.64171 -56.317184 -636.01917
22.642246 -67.04702 -638.40356
22.642557 -67.161835 -636.71826
22.642946 -66.304092 -637.51343
22.64332 -67.674103 -638.3186
22.647236 -82.02211 -633.4483
22.6476 -67.591805 -637.89008
22.649399 -57.085781 -636.53735
22.649477 -60.756741 -638.78235
22.650234 -65.404243 -636.61157
22.650509 -67.286873 -637.06909
22.651169 -52.275372 -633.1886
22.653925 -66.554825 -637.46088
22.654207 -76.742188 -633.10535
22.656046 -81.447716 -634.12836
22.656103 -65.975311 -638.37994
22.657143 -65.445129 -638.63104
22.659016 -66.969955 -637.05157
22.659889 -79.029167 -632.1842
22.660942 -67.121628 -636.57971
22.662487 -75.777161 -632.13464
22.66258 -65.123909 -638.71381
22.664961 -66.218498 -638.27295
22.666405 -82.142281 -633.69208
22.667345 -66.518265 -638.26263
22.668913 -67.677788 -638.10938
22.669676 -58.841671 -637.31415
22.67057 -80.874405 -633.62848
22.671568 -61.079952 -638.88605
22.674459 -61.500805 -639.07098
22.675175 -77.808014 -632.6181
22.676716 -67.160919 -636.59064
22.688368 -66.054115 -637.27704
22.688942 -77.2799 -633.00073
22.689911 -82.019844 -634.19482
22.691339 -63.895596 -638.71216
22.692127 -67.107864 -636.62335
22.692722 -81.742538 -634.27106
22.694382 -81.160446 -633.82251
22.698988 -67.644623 -638.46997
22.702213 -76.463676 -633.12531
22.706015 -81.719803 -633.05353
22.709805 -67.499878 -638.57953
22.712242 -63.592945 -632.54144
22.713963 -57.865311 -636.70441
22.723732 -64.360184 -634.36969
22.724169 -67.455208 -637.51532
22.728266 -76.950882 -633.17072
22.729221 -67.292618 -637.01361
22.730417 -76.13221 -632.96307
22.731678 -64.600845 -634.88831
22.732145 -78.755501 -632.22028
22.732965 -82.04612 -633.8139
22.734583 -64.783562 -638.77765
22.734928 -58.234173 -636.80029
22.735273 -75.21405 -631.59406
22.737389 -75.815742 -632.4715
22.73769 -75.511566 -632.0014
22.73908 -77.450752 -632.95312
22.742287 -67.67498 -638.27307
22.742445 -54.613033 -634.71429
22.742466 -65.795975 -636.90399
22.744104 -74.589706 -630.92053
22.744686 -67.257317 -638.6463
22.749691 -66.447937 -637.21069
22.750599 -56.97266 -636.33594
22.752182 -67.056946 -636.90192
22.758049 -56.026775 -635.72046
22.759306 -62.636814 -639.133
22.759958 -63.408382 -631.73895
22.760914 -66.798302 -637.12915
22.76185 -65.140312 -636.09717
22.763218 -74.28949 -630.37836
22.766548 -64.214653 -633.96307
22.770836 -58.57832 -636.97681
22.772203 -57.308895 -636.46246
22.777502 -81.877014 -633.96869
22.779037 -81.847862 -633.56213
22.78108 -81.467606 -632.60266
22.78371 -74.909729 -631.46118
22.791451 -60.10265 -638.49945
22.793667 -64.778778 -635.30182
22.794659 -63.881996 -632.66724
22.800058 -75.834038 -632.97491
22.8062 -81.634766 -633.88959
22.80637 -66.229637 -638.50781
22.808537 -65.832802 -638.62329
22.809101 -55.055305 -635.04169
22.816889 -65.512764 -636.51068
22.81724 -66.720024 -638.5567
22.817919 -63.63316 -638.81116
22.818254 -75.595451 -632.62476
22.82008 -63.688557 -632.03925
22.826092 -76.062149 -633.3667
22.826534 -75.231781 -632.01483
22.827644 -66.168076 -636.97662
22.841091 -75.820396 -633.46423
22.842642 -81.261185 -632.15985
22.846382 -79.311905 -632.2146
22.846653 -52.022465 -633.00946
22.84767 -74.279861 -630.95068
22.848253 -67.274452 -637.22516
22.853941 -75.483116 -633.79932
22.854134 -64.320389 -633.75134
22.856092 -80.330116 -633.18927
22.857718 -66.637054 -636.95978
22.867224 -77.967651 -632.67633
22.867487 -76.357468 -633.49658
22.86858 -60.458157 -638.68213
22.868874 -67.641151 -638.56787
22.869415 -76.699791 -633.42694
22.874578 -67.437653 -638.8136
22.875147 -74.896484 -631.93231
22.877092 -75.243347 -633.01129
22.878096 -81.570335 -633.02393
22.878992 -67.544098 -637.87512
22.882198 -75.299156 -633.5625
22.883575 -64.906181 -635.50909
22.890867 -64.271683 -632.94171
22.892744 -61.28952 -639.09729
22.89642 -75.741074 -633.98816
22.89908 -59.418968 -637.63202
22.901352 -81.606102 -633.41669
22.902113 -54.021023 -634.09607
22.903233 -67.064476 -637.08722
22.906012 -75.503571 -634.28082
22.90686 -64.126366 -632.03223
22.909515 -74.948242 -632.43933
22.910732 -56.672497 -635.99469
22.916994 -81.394501 -633.69037
22.918631 -63.588787 -631.44385
22.919565 -63.901375 -631.66028
22.92886 -65.77224 -636.58093
22.930197 -60.894615 -638.88879
22.93479 -76.104736 -633.82489
22.935255 -58.855961 -637.06287
22.939642 -63.685711 -631.44611
22.940193 -75.330132 -634.27954
22.941557 -80.934692 -633.60004
22.942146 -52.596474 -633.12518
22.944311 -73.757545 -630.93372
22.944843 -64.672661 -634.42389
22.948366 -74.904778 -632.69891
22.949322 -63.400375 -638.95331
22.952961 -78.478477 -632.37268
22.953144 -66.901505 -636.86615
22.95377 -64.861908 -635.24146
22.95388 -60.028458 -638.24316
22.957949 -62.035583 -639.33234
22.958685 -75.05912 -633.21899
22.959391 -81.181686 -633.66986
22.964518 -74.580292 -632.14465
22.966618 -75.494759 -634.55908
22.967035 -58.410881 -636.53333
22.968948 -73.527634 -630.59802
22.969826 -66.680168 -636.61066
22.971352 -67.594299 -638.94385
22.972668 -61.680962 -639.26215
22.972956 -74.283051 -631.78741
22.974442 -64.552345 -632.49817
22.975718 -66.321693 -636.61981
22.975882 -64.388084 -631.80408
22.97607 -64.968445 -635.4975
22.97789 -65.244652 -635.93396
22.979019 -66.081627 -638.70648
22.981386 -67.158531 -638.88409
22.98838 -67.291687 -637.35107
22.988886 -80.318054 -630.13293
22.992014 -75.684143 -634.46606
22.994699 -62.433395 -639.35358
22.995371 -52.398762 -632.9986
22.995731 -56.345924 -635.74261
22.998821 -81.522522 -633.22284
23.004814 -67.789116 -638.76733
23.007051 -75.19619 -634.13409
23.007071 -64.600204 -633.49225
23.007647 -77.207947 -633.37256
23.013086 -67.724236 -638.99451
23.014536 -66.666359 -636.36682
23.015476 -76.383987 -633.85651
23.015501 -66.410889 -638.70502
23.015577 -66.706985 -638.74451
23.018421 -55.651016 -635.34985
23.022314 -67.732925 -638.19324
23.02742 -81.063103 -631.89948
23.028734 -67.18174 -637.11584
23.028984 -74.812614 -632.87915
23.029783 -66.894913 -636.41559
23.034069 -81.328621 -632.58582
23.035917 -53.405052 -633.58508
23.03618 -61.12661 -639.06995
23.036396 -67.44635 -637.55304
23.036949 -74.499519 -632.35364
23.040743 -65.633179 -638.85236
23.049845 -65.505173 -636.06976
23.052691 -59.114277 -637.24017
23.054615 -65.914116 -636.37506
23.055344 -58.209282 -636.28357
23.056841 -76.618401 -633.7619
23.057457 -80.125481 -632.97467
23.059423 -80.589394 -633.39178
23.059706 -81.414162 -633.00903
23.06196 -75.292763 -634.57001
23.066271 -64.576714 -631.34442
23.067804 -66.988762 -638.88611
23.068399 -67.392319 -639.07361
23.069874 -81.414902 -633.37457
23.071436 -66.64109 -635.91901
23.072964 -73.970856 -631.82916
23.074287 -64.933289 -632.86505
23.07583 -64.851524 -634.12579
23.076303 -64.843575 -633.57184
23.080036 -65.180519 -635.54968
23.080502 -64.983971 -635.08075
23.080948 -68.004288 -638.66718
23.083836 -75.989609 -634.32971
23.085888 -73.645462 -631.3335
23.086992 -67.052269 -636.08685
23.089123 -56.967937 -635.92163
23.089407 -64.773674 -631.88098
23.090143 -58.74995 -636.72614
23.090855 -66.703163 -635.53479
23.090872 -78.23439 -632.61871
23.092035 -58.559711 -636.47925
23.093599 -73.402695 -630.70807
23.095043 -66.676987 -634.78662
23.096939 -81.25898 -633.52972
23.097521 -67.623787 -639.18591
23.102444 -67.908707 -639.164
23.102489 -67.01947 -634.81305
23.103241 -60.369736 -638.51013
23.104496 -57.867027 -636.10449
23.10597 -79.09581 -632.20795
23.1068 -75.521347 -634.78717
23.113672 -67.476234 -637.20325
23.119673 -65.792213 -636.01782
23.122734 -65.112724 -632.61884
23.123018 -81.051277 -633.52979
23.124517 -76.870491 -633.6958
23.129232 -68.260216 -639.06885
23.133837 -67.979927 -638.03076
23.134207 -62.714508 -639.3822
23.135786 -65.330963 -633.2688
23.137415 -76.342117 -634.09637
23.139324 -65.121925 -633.83618
23.143002 -74.85717 -633.36047
23.146893 -67.406265 -636.46405
23.147045 -67.351555 -635.11206
23.147659 -65.850647 -634.06732
23.148752 -65.5317 -633.10736
23.150118 -68.320686 -638.55695
23.155718 -66.176842 -635.41272
23.15711 -66.249634 -633.69727
23.157238 -67.097816 -634.55829
23.165247 -65.481346 -635.53375
23.169241 -65.945595 -635.71179
23.17194 -59.690327 -637.59045
23.172882 -65.210571 -634.97107
23.175104 -61.044014 -639.05646
23.179354 -68.585121 -638.98132
23.180525 -62.201698 -639.50873
23.181114 -68.192047 -639.48242
23.184258 -58.97485 -636.94098
23.189159 -59.933949 -637.80457
23.192822 -65.584946 -632.72266
