ply
format ascii 1.0
comment PCL generated
element vertex 1495
property float x
property float y
property float z
element camera 0
property float view_px
property float view_py
property float view_pz
property float x_axisx
property float x_axisy
property float x_axisz
property float y_axisx
property float y_axisy
property float y_axisz
property float z_axisx
property float z_axisy
property float z_axisz
property float focal
property float scalex
property float scaley
property float centerx
property float centery
property int viewportx
property int viewporty
property float k1
property float k2
end_header
15.23814 -32.217354 -569.44092
15.251943 -32.564388 -576.40082
15.25499 -34.663647 -598.93433
15.259428 -31.413378 -570.40826
15.264953 -31.800613 -569.75665
15.265159 -31.978617 -574.80219
15.267975 -31.690136 -574.17926
15.307805 -34.193039 -594.24658
15.313656 -31.442263 -573.51105
15.317727 -33.970947 -590.8103
15.331243 -34.223545 -592.67242
15.349827 -35.398197 -602.23779
15.363254 -36.444885 -604.99841
15.379445 -34.297436 -595.39276
15.392087 -31.26795 -571.41241
15.395453 -31.465744 -570.14716
15.395595 -33.591621 -587.30457
15.400455 -34.941082 -600.69647
15.403533 -31.269936 -572.36365
15.406501 -32.85796 -578.98187
15.407637 -35.796715 -603.36853
15.410064 -33.964317 -590.60065
15.411252 -32.859306 -581.98859
15.418753 -32.841557 -581.375
15.421785 -31.260403 -571.91724
15.422174 -33.484898 -586.48016
15.422591 -33.355885 -585.59973
15.429338 -32.626831 -576.91785
15.429818 -31.580223 -573.89227
15.430563 -34.225655 -593.73743
15.433812 -33.88876 -589.16943
15.440647 -34.765499 -599.59589
15.445433 -35.270901 -601.87976
15.447389 -31.336006 -570.50055
15.447406 -34.625931 -597.89105
15.448069 -33.02673 -584.06683
15.456964 -34.280949 -595.11755
15.459348 -32.836231 -580.72241
15.461081 -31.551655 -569.93402
15.46144 -32.034153 -574.95551
15.479174 -34.2537 -594.75653
15.480268 -34.875175 -600.31165
15.492175 -36.249683 -604.61505
15.494501 -32.927505 -583.0849
15.496148 -31.263731 -570.99353
15.496813 -34.188629 -591.62598
15.515167 -31.859564 -574.56396
15.517982 -33.813534 -588.27661
15.520897 -35.647663 -603.04279
15.524731 -36.055504 -604.1377
15.542487 -31.298712 -572.75684
15.544464 -33.137314 -584.50891
15.557902 -32.770691 -577.948
15.560943 -33.971336 -590.1076
15.56204 -31.364195 -573.17761
15.568746 -35.171692 -601.55072
15.600324 -36.627731 -605.86719
15.601336 -32.357407 -575.7934
15.606693 -32.839848 -578.69257
15.612571 -34.271694 -594.13934
15.613127 -34.279381 -592.11658
15.617276 -33.906315 -588.72455
15.627826 -32.413677 -576.00299
15.634627 -32.145931 -575.25714
15.652103 -32.507172 -576.4953
15.66481 -34.593403 -596.63257
15.676435 -33.572556 -586.75964
15.678372 -31.372517 -570.10736
15.681098 -33.005634 -583.45264
15.683924 -34.526146 -596.05139
15.686528 -34.891106 -600.18225
15.691966 -36.365822 -605.22968
15.704554 -32.86095 -581.4256
15.710204 -31.276438 -572.37549
15.713309 -35.788223 -603.60559
15.715523 -35.535755 -602.82928
15.717196 -32.163074 -569.3291
15.726652 -32.918114 -582.18781
15.738437 -32.841656 -580.87335
15.738465 -31.246391 -571.90668
15.739521 -31.207684 -570.75787
15.745646 -34.681137 -597.78217
15.75047 -32.853775 -579.41443
15.75088 -34.61343 -596.59814
15.752476 -32.376556 -569.22595
15.752513 -34.335899 -592.61914
15.756515 -33.658913 -587.14673
15.75857 -31.527521 -569.78381
15.767351 -33.27816 -584.9693
15.767715 -31.204632 -571.37164
15.76825 -34.390781 -595.0625
15.769432 -35.422367 -602.4751
15.771532 -34.077393 -590.45844
15.777828 -34.280334 -591.65289
15.795074 -31.734825 -569.56152
15.795285 -33.110523 -584.02527
15.802467 -34.337982 -593.44684
15.819703 -33.763126 -587.58252
15.822885 -32.839375 -580.45892
15.825035 -36.111927 -604.63495
15.830709 -31.474447 -573.54828
15.838286 -32.203075 -575.48883
15.839149 -32.029396 -574.99274
15.879701 -34.999485 -600.61816
15.881598 -31.823744 -574.43817
15.895288 -33.566547 -586.48456
15.902031 -35.207691 -601.62152
15.909875 -34.603451 -596.11133
15.912481 -31.214956 -570.31683
15.914367 -36.700367 -606.48566
15.925537 -32.792011 -578.49811
15.937023 -31.357296 -569.93323
15.953577 -31.124685 -571.10437
15.96191 -34.04438 -589.1026
15.96232 -35.351749 -602.23975
15.97514 -31.11767 -570.72791
15.978494 -34.099167 -589.8584
15.978646 -34.199306 -590.79211
15.980034 -31.344221 -572.86438
15.990552 -34.769501 -598.52295
15.995164 -35.94833 -604.35883
15.999929 -32.867031 -581.01093
16.002649 -33.014645 -582.46765
16.006363 -34.366943 -592.00922
16.012844 -32.936028 -581.75916
16.022469 -31.423986 -573.28241
16.027145 -35.869209 -604.14325
16.029669 -34.393902 -592.5777
16.041475 -32.653683 -577.82147
16.042612 -31.497398 -569.68121
16.044003 -34.406258 -593.89679
16.044031 -31.284945 -572.38275
16.055111 -34.480152 -594.88019
16.069725 -36.480019 -606.16571
16.073463 -36.263901 -605.51105
16.08058 -34.435997 -594.35144
16.080656 -33.255577 -584.5542
16.084011 -32.295872 -575.91711
16.090633 -33.98452 -588.3006
16.092657 -31.210669 -571.89569
16.094934 -34.599537 -595.61005
16.099247 -32.452827 -576.62964
16.105814 -36.085041 -604.95605
16.10623 -32.374699 -576.25049
16.113968 -31.100143 -571.35712
16.118874 -35.643085 -603.47986
16.12221 -32.861217 -579.573
16.131142 -32.013371 -574.94128
16.132664 -31.864361 -569.34668
16.133968 -33.159744 -583.65894
16.13607 -31.081007 -570.56323
16.142387 -34.723999 -597.39008
16.16083 -32.175163 -575.51392
16.161156 -35.305412 -602.0274
16.172646 -31.542521 -573.59692
16.173304 -35.513153 -603.0415
16.185617 -34.975571 -600.05017
16.188112 -31.050495 -570.95197
16.191673 -34.272079 -590.83783
16.191788 -36.118786 -605.20697
16.195866 -33.422852 -585.41858
16.208847 -35.203438 -601.46155
16.214535 -31.743942 -574.11823
16.236055 -31.114365 -570.29651
16.236486 -31.266922 -569.94446
16.238314 -34.4459 -593.60156
16.243799 -34.533901 -594.7724
16.248089 -34.694229 -596.41772
16.248377 -31.864267 -574.44287
16.261629 -33.749004 -587.00494
16.268641 -33.246674 -584.16589
16.273024 -34.223579 -590.16089
16.281384 -35.800224 -604.17157
16.291466 -33.959293 -587.84222
16.293633 -32.84177 -579.21649
16.306189 -31.697916 -569.38898
16.307135 -34.604046 -595.16669
16.318602 -33.519188 -585.88123
16.323025 -34.842979 -598.64368
16.333323 -31.362789 -572.77417
16.335676 -32.947468 -581.31128
16.337023 -32.885071 -580.57141
16.346556 -35.076916 -600.63654
16.348705 -31.059656 -571.38788
16.351646 -32.362816 -576.3631
16.352009 -31.856426 -569.28503
16.35548 -34.662582 -595.66309
16.361431 -32.308193 -569.08948
16.374462 -32.872963 -579.89264
16.37472 -34.130848 -588.75562
16.375778 -33.672276 -586.57996
16.375795 -32.591198 -577.74927
16.376171 -35.456337 -602.91846
16.384874 -31.476875 -569.58289
16.399395 -36.520294 -606.78033
16.405508 -32.255192 -575.88782
16.408213 -31.028391 -570.61346
16.408232 -35.961716 -604.96667
16.410057 -31.271328 -572.28912
16.415701 -32.71508 -578.45673
16.420277 -35.703651 -603.96564
16.425722 -34.208508 -589.33606
16.428856 -34.38073 -591.22693
16.429546 -32.46331 -576.95288
16.431303 -32.811638 -579.00305
16.436022 -34.527798 -594.23517
16.444824 -36.396358 -606.53882
16.447206 -34.990871 -599.74487
16.448448 -33.325806 -584.49261
16.452126 -31.005205 -571.01935
16.472586 -31.975227 -574.72058
16.479218 -32.162579 -575.48065
16.494886 -33.445927 -585.22192
16.49909 -35.311207 -601.95013
16.499992 -31.109518 -570.19159
16.50102 -33.092117 -582.03149
16.50897 -33.169373 -582.59351
16.510666 -35.396614 -602.60034
16.524897 -35.268845 -601.61566
16.527037 -34.784912 -597.63837
16.570602 -31.10483 -571.67133
16.574997 -31.625332 -569.38348
16.575418 -34.075596 -588.08899
16.578665 -33.954048 -587.46063
16.613672 -36.170582 -606.14819
16.614429 -31.252922 -569.85596
16.614717 -32.353344 -576.39746
16.623045 -34.457596 -591.64404
16.624451 -31.452065 -573.008
16.6306 -32.941895 -580.75354
16.636541 -32.080605 -575.06525
16.636883 -34.308643 -589.76251
16.638592 -35.114006 -600.62891
16.649332 -35.943668 -605.29852
16.651241 -31.026913 -571.30499
16.651936 -32.652988 -578.25616
16.654257 -36.686134 -607.46967
16.657873 -35.50428 -603.36591
16.661797 -31.825436 -569.23737
16.666193 -35.779327 -604.56543
16.672892 -35.6241 -603.88776
16.675499 -35.358601 -602.28149
16.686266 -33.631664 -586.06061
16.689981 -30.996204 -570.90332
16.69335 -32.895897 -579.97949
16.701183 -33.485954 -585.13757
16.708023 -32.849701 -579.40875
16.710085 -32.070591 -569.10419
16.717695 -34.517605 -593.20837
16.718794 -32.196568 -575.57501
16.726477 -31.027504 -570.495
16.728346 -36.496948 -607.21777
16.729939 -31.254959 -572.22723
16.7309 -36.071541 -605.98132
16.73497 -34.506233 -592.27942
16.738605 -34.389286 -590.48297
16.739147 -35.046654 -599.89117
16.741007 -34.588825 -594.18378
16.743914 -31.377251 -572.66687
16.747961 -32.46365 -577.04987
16.751732 -34.222054 -588.75244
16.760937 -31.422163 -569.58276
16.764614 -34.295631 -589.23145
16.768953 -34.049881 -587.72864
16.778267 -33.75037 -586.44122
16.779768 -34.977703 -598.97571
16.783722 -33.309505 -583.46844
16.793972 -33.179333 -582.16876
16.795332 -33.928337 -587.12341
16.797272 -31.564005 -573.29987
16.811886 -32.782875 -578.94464
16.812056 -33.664497 -586.02917
16.813131 -33.09005 -581.53729
16.813698 -31.114883 -570.15247
16.851683 -36.164391 -606.51514
16.867134 -34.784683 -596.72064
16.882004 -31.60503 -569.36719
16.885201 -31.102135 -571.6402
16.885674 -35.16238 -600.7984
16.901588 -34.765228 -595.95905
16.907904 -31.729647 -573.7301
16.922035 -32.349266 -576.30542
16.928547 -34.539719 -591.8728
16.939871 -31.033257 -571.229
16.94368 -32.945042 -580.2478
16.951298 -34.583965 -593.64679
16.952412 -32.580975 -577.80615
16.964653 -32.231869 -575.61548
16.966232 -31.016981 -570.81555
16.972805 -31.816933 -569.19568
16.972862 -34.8279 -597.19464
16.975073 -33.649345 -585.64246
16.977573 -32.875484 -579.52783
16.9834 -34.765644 -595.54694
16.98638 -33.021904 -580.83655
16.986454 -33.302681 -582.94513
16.996067 -31.053682 -570.45569
17.001978 -31.246046 -569.91785
17.002724 -35.090843 -600.2243
17.00527 -35.408768 -602.92181
17.021469 -36.490757 -607.54114
17.022871 -36.64637 -607.82635
17.023319 -33.438164 -584.0083
17.026276 -35.748936 -605.03241
17.026842 -36.265156 -607.0022
17.029432 -35.657898 -604.51245
17.031197 -34.584129 -593.07129
17.032888 -35.946808 -606.02228
17.032896 -31.932812 -574.27441
17.038536 -35.475716 -603.55792
17.049835 -32.075047 -569.02924
17.051579 -33.926403 -586.81287
17.05559 -35.384323 -602.466
17.058922 -34.880146 -597.64166
17.060371 -32.283989 -568.9082
17.064066 -31.123131 -570.22864
17.066059 -33.777943 -586.12457
17.071613 -35.037174 -599.21552
17.08534 -34.347416 -589.09967
17.095205 -34.732121 -594.80133
17.099861 -32.094124 -574.81775
17.099918 -34.988827 -598.53839
17.101723 -31.424187 -569.59778
17.101784 -34.059719 -587.43561
17.124149 -34.660919 -594.04919
17.128038 -35.849655 -605.81195
17.129204 -32.785557 -578.85425
17.131517 -32.453827 -576.8017
17.143446 -34.574749 -591.53632
17.148029 -31.239267 -572.06335
17.172382 -35.169579 -600.7934
17.183743 -31.119402 -571.56085
17.184612 -36.155029 -606.8988
17.197823 -31.605755 -573.25342
17.199078 -31.601849 -569.3598
17.200699 -31.063759 -570.75525
17.201889 -31.06669 -571.14227
17.210245 -31.086306 -570.53082
17.222244 -33.893295 -586.38501
17.22744 -35.860477 -606.03546
17.232042 -33.155407 -581.29413
17.234079 -35.987358 -606.45276
17.236057 -34.865944 -597.01166
17.23629 -33.555466 -584.349
17.270475 -32.686699 -578.20514
17.275471 -35.361641 -601.93103
17.276867 -34.82478 -595.42426
17.276937 -32.319851 -575.82812
17.277023 -32.962368 -579.88062
17.289759 -35.308804 -601.51898
17.290337 -35.065495 -599.79626
17.292311 -33.43652 -583.45068
17.294226 -35.104603 -600.35425
17.298227 -31.799356 -569.16895
17.306536 -34.657955 -592.22034
17.312246 -35.401901 -602.91675
17.31362 -35.559818 -604.42316
17.317438 -34.468315 -589.53522
17.322937 -31.18115 -570.32977
17.323044 -35.477356 -603.9328
17.326017 -35.424225 -603.44092
17.328094 -32.541996 -577.1994
17.333355 -34.216942 -588.1189
17.34198 -34.983097 -598.06305
17.350153 -32.865444 -579.12164
17.358089 -35.042034 -598.81433
17.359404 -31.30275 -569.93817
17.363827 -36.332802 -607.48682
17.371569 -35.610165 -604.95056
17.375971 -34.548939 -590.17456
17.376371 -33.324921 -582.47028
17.382353 -36.831135 -608.54822
17.393118 -36.564968 -608.01215
17.394602 -34.354847 -588.78442
17.395817 -34.053898 -586.90436
17.402817 -31.14311 -571.4339
17.410734 -32.000015 -569.00769
17.418131 -32.442955 -576.39697
17.423429 -31.124714 -571.06152
17.431263 -33.146729 -580.79938
17.439543 -32.784157 -578.4928
17.446913 -33.40815 -582.9964
17.449177 -34.663887 -591.46564
17.45409 -33.725105 -584.91626
17.461119 -34.172157 -587.64331
17.463682 -34.924446 -596.95923
17.470097 -34.910603 -596.11511
17.474588 -33.941849 -586.08392
17.477417 -35.163681 -600.83691
17.478453 -35.638134 -605.43372
17.483326 -33.282909 -581.87653
17.487404 -31.245975 -571.88812
17.4974 -32.696434 -577.92615
17.502226 -32.069683 -574.50891
17.508224 -31.441898 -569.61896
17.516006 -31.595425 -569.3576
17.518368 -34.893425 -595.41779
17.519585 -34.764759 -594.14545
17.534185 -34.645958 -590.77014
17.537916 -34.745804 -593.74304
17.546726 -35.404419 -603.20624
17.546835 -32.99765 -579.61255
17.559097 -33.570843 -583.84839
17.564054 -32.251263 -575.19092
17.580093 -31.779377 -573.65417
17.583094 -34.998623 -597.69775
17.586567 -34.752033 -593.31305
17.597986 -31.524061 -572.88831
17.599487 -34.503483 -589.2854
17.608248 -35.795055 -606.35468
17.608528 -35.054073 -599.43762
17.608612 -32.54253 -576.73785
17.613989 -33.229939 -580.96222
17.621393 -31.773539 -569.15222
17.623707 -31.196381 -570.8717
17.626143 -35.059105 -599.92426
17.634594 -35.511051 -605.01733
17.636576 -34.279892 -588.08014
17.645144 -35.416874 -603.96002
17.648888 -35.665462 -605.96155
17.650892 -31.250349 -570.37579
17.653887 -35.454384 -604.51038
17.657427 -31.219191 -571.47949
17.659214 -34.11853 -586.59851
17.664799 -36.572567 -608.27161
17.668415 -33.167824 -580.36292
17.669464 -32.195183 -568.84015
17.673683 -34.995838 -597.06
17.677485 -36.00481 -606.99561
17.678125 -31.993298 -574.21289
17.679598 -34.763767 -591.80994
17.683733 -34.591095 -589.659
17.689877 -34.997772 -596.13074
17.692137 -32.840996 -578.31354
17.693155 -33.049721 -579.59143
17.69697 -33.897266 -585.29059
17.702675 -33.352623 -582.00952
17.707693 -34.378441 -588.45581
17.717808 -32.462837 -576.06439
17.72385 -33.723705 -584.36316
17.724421 -31.965403 -568.98224
17.729965 -36.136013 -607.36359
17.741041 -35.303444 -601.57458
17.744072 -31.333466 -569.97638
17.745125 -34.254925 -587.54028
17.754398 -32.199169 -574.83276
17.757935 -34.679203 -590.12762
17.758011 -34.914303 -594.84644
17.760319 -34.04805 -585.87177
17.762306 -32.381874 -575.60492
17.76395 -34.810387 -592.39429
17.770214 -34.987125 -595.40192
17.775566 -31.449842 -572.57184
17.780519 -31.645273 -573.24243
17.787882 -35.07082 -600.37781
17.819323 -33.031723 -579.13843
17.823563 -32.686047 -577.16345
17.831476 -33.326405 -581.0871
17.835766 -31.585718 -569.35492
17.843647 -35.367741 -601.96362
17.850719 -35.070957 -598.35376
17.863522 -34.830631 -591.58453
17.864019 -35.074776 -598.87439
17.874296 -34.186356 -586.29633
17.876801 -33.394184 -581.79413
17.877499 -34.244713 -586.78119
17.879278 -33.481682 -582.80585
17.879513 -34.878757 -594.08044
17.880085 -35.407837 -602.41357
17.889666 -35.244747 -601.39648
17.890343 -36.136509 -607.52795
17.892384 -35.068138 -597.75641
17.904192 -35.83112 -606.81061
17.911652 -33.867649 -584.65662
17.912556 -34.376926 -587.94562
17.915483 -35.70113 -606.5072
17.918388 -33.296955 -580.46179
17.918985 -35.106052 -596.29858
17.929087 -35.049191 -595.25745
17.930744 -34.875298 -593.10089
17.935108 -35.379322 -604.42969
17.935951 -35.066101 -599.41327
17.936441 -35.399956 -603.42609
17.941317 -32.991722 -578.51569
17.944609 -31.768566 -569.13293
17.944637 -31.255512 -570.84418
17.945274 -35.429588 -605.52509
17.946205 -36.417191 -608.2226
17.952755 -35.384476 -604.96838
17.956095 -35.12841 -600.94989
17.966928 -31.913946 -573.9444
17.969952 -31.281124 -570.38788
17.982758 -31.400627 -572.23975
17.986563 -34.068188 -585.33221
17.988539 -35.123726 -596.79462
17.98999 -32.744942 -577.05988
18.000134 -31.276472 -571.3075
18.003597 -32.593407 -576.2179
18.012272 -33.486439 -582.47552
18.012547 -35.144619 -595.77454
18.014793 -35.57193 -606.3316
18.015005 -34.940609 -594.03925
18.015554 -33.724758 -583.87805
18.016127 -32.150276 -574.5318
18.021908 -32.349945 -575.1875
18.032652 -33.412804 -581.03326
18.036064 -35.476131 -606.04553
18.042528 -32.495983 -575.72308
18.04425 -33.626896 -583.41937
18.053577 -34.934704 -593.17401
18.054937 -35.371529 -604.13007
18.055542 -32.13422 -568.82935
18.059872 -33.97583 -584.76575
18.072821 -33.356602 -580.34174
18.084251 -31.338181 -571.77344
18.099361 -32.978329 -577.94482
18.13599 -35.145058 -597.71863
18.144249 -36.9091 -609.61169
18.146933 -32.020008 -568.90039
18.153429 -31.56098 -572.86237
18.166061 -32.023346 -574.16394
18.168116 -35.807625 -607.08142
18.170324 -35.149288 -598.22815
18.174067 -31.587843 -569.36346
18.186331 -35.138748 -598.75201
18.201504 -32.701256 -576.27301
18.209658 -33.550621 -582.16675
18.21104 -35.296844 -605.40173
18.217421 -33.623352 -583.03607
18.224876 -35.2752 -596.01349
18.226955 -35.214035 -595.10333
18.227314 -35.074654 -593.89941
18.232162 -35.303078 -604.82526
18.232702 -35.204704 -597.36108
18.235394 -36.234695 -608.17462
18.242556 -32.279888 -574.77039
18.250328 -31.285803 -570.83411
18.260702 -35.114452 -599.37384
18.271666 -33.337696 -579.56036
18.272198 -33.539558 -581.00513
18.277826 -32.387009 -575.05188
18.28455 -35.045643 -600.47479
18.287064 -35.369396 -603.92981
18.287542 -35.081375 -600.94098
18.292591 -35.325111 -606.0058
18.296074 -33.734238 -583.37714
18.304232 -33.898178 -583.99536
18.309505 -33.131794 -578.06189
18.31328 -35.321438 -596.42236
18.315125 -35.568195 -606.79596
18.317801 -32.490482 -575.32373
18.318213 -35.296783 -596.87952
18.320786 -31.831816 -569.099
18.324692 -31.434031 -569.64941
18.326025 -33.482159 -580.23682
18.326054 -33.666698 -582.96143
18.327959 -32.659943 -575.85748
18.332291 -35.319599 -601.97406
18.340137 -35.394596 -602.43634
18.344728 -32.789974 -576.30853
18.37104 -35.252922 -597.85193
18.371725 -31.484241 -572.36896
18.376768 -36.763382 -609.52783
18.377993 -35.159275 -601.38391
18.381186 -32.144112 -574.35345
18.385387 -33.662323 -582.54425
18.386347 -35.412834 -603.396
18.390944 -32.046314 -568.91589
18.401718 -31.780478 -573.55334
18.407257 -35.233757 -598.58722
18.410242 -33.659714 -582.02869
18.423475 -35.425152 -602.92743
18.427366 -32.876301 -576.45892
18.442024 -35.203911 -599.104
18.44978 -35.309322 -604.43585
18.450682 -35.199173 -605.75574
18.493307 -31.346256 -571.32782
18.495228 -35.232121 -604.90118
18.496542 -36.571598 -609.24213
18.505928 -31.675049 -573.20679
18.510586 -35.064255 -600.38086
18.525282 -35.211426 -606.14337
18.532871 -31.309967 -570.32935
18.533237 -31.413723 -571.8006
18.536789 -33.794899 -582.8822
18.541809 -31.349323 -569.96857
18.5529 -31.58807 -569.45325
18.555847 -31.312943 -570.79382
18.565145 -35.125893 -599.94696
18.573563 -35.317028 -606.52368
18.580231 -36.155258 -608.46045
18.584364 -35.187859 -599.62732
18.587852 -33.048641 -576.74188
18.589348 -35.071026 -600.93018
18.597441 -35.434402 -597.40497
18.598791 -32.250561 -574.46436
18.60993 -35.531544 -607.09802
18.616411 -35.694408 -607.43402
18.617542 -35.134342 -601.37384
18.61894 -35.379734 -598.36011
18.622585 -35.132355 -605.58282
18.626324 -35.324245 -598.93695
18.633213 -31.43223 -569.74707
18.638161 -32.636738 -575.30621
18.659863 -31.789558 -569.22699
18.661829 -35.268982 -599.41455
18.66658 -32.046055 -569.01263
18.670092 -32.514198 -574.98132
18.672089 -35.134735 -606.03796
18.680887 -35.153854 -605.20093
18.689207 -31.91494 -573.776
18.690435 -35.183441 -606.33936
18.694832 -31.772688 -573.46173
18.694889 -35.299976 -602.06097
18.713842 -32.946335 -576.03021
18.726709 -31.625362 -572.83606
18.746624 -32.413383 -574.68683
18.776409 -31.392756 -569.97223
18.776531 -31.524775 -572.14691
18.782465 -35.311207 -604.36542
18.790354 -35.89333 -608.12775
18.803885 -31.356274 -570.27106
18.808706 -35.486134 -598.72394
18.813253 -32.875488 -575.65479
18.823835 -31.354498 -570.69037
18.83061 -35.225357 -606.58435
18.83386 -31.400545 -571.28851
18.836962 -35.150463 -600.38898
18.844646 -35.200954 -600.1394
18.84938 -35.433304 -599.22498
18.854486 -35.109505 -600.86414
18.857134 -35.135208 -601.30585
18.864111 -35.567665 -598.40039
18.865915 -31.681864 -569.46667
18.873812 -31.511873 -569.81219
18.876354 -31.727213 -573.20404
18.877344 -32.146282 -574.11621
18.884138 -35.137161 -606.3363
18.889788 -35.329613 -599.77423
18.904051 -35.08379 -605.97021
18.917294 -31.82398 -573.46161
18.918139 -35.084713 -605.54736
18.9189 -35.144314 -605.11774
18.922445 -36.620422 -609.88129
18.926775 -35.368565 -606.96979
18.927639 -32.091759 -569.08752
18.929127 -31.895723 -569.24481
18.940811 -35.537361 -607.40576
18.945333 -31.426615 -570.1629
18.947474 -35.764374 -607.97308
18.951937 -36.265968 -609.16803
18.953526 -35.412956 -602.97351
18.957359 -32.337666 -574.39227
18.960747 -35.616478 -607.59845
18.979359 -35.310024 -604.40057
19.015503 -35.287777 -602.04901
19.02672 -31.427773 -570.54596
19.028362 -31.551603 -571.84949
19.030577 -31.463343 -571.29785
19.040836 -31.44206 -571.01392
19.044479 -35.424881 -603.44293
19.059204 -31.757843 -569.47101
19.063885 -32.796524 -575.15247
19.065105 -35.194324 -600.75043
19.08382 -36.966255 -610.79034
19.119532 -32.056702 -573.84027
19.137529 -31.661169 -569.77252
19.157547 -35.109215 -606.33002
19.160202 -35.200653 -606.66858
19.166275 -35.397465 -603.91925
19.169249 -35.215836 -601.31531
19.169573 -31.544813 -570.28345
19.178444 -35.277668 -600.62622
19.186884 -31.872629 -569.43719
19.18696 -32.129562 -569.21313
19.187967 -31.757172 -569.58374
19.190742 -35.06144 -605.92584
19.193916 -35.490063 -599.99799
19.195642 -35.893341 -608.60968
19.205494 -35.559166 -607.59515
19.208908 -35.081879 -605.49158
19.209253 -32.565048 -574.57458
19.212683 -35.351528 -602.48627
19.213194 -31.765951 -572.90582
19.23905 -32.043732 -573.71503
19.240519 -35.799728 -608.36566
19.242004 -31.90411 -573.34528
19.242207 -31.539709 -570.86725
19.250998 -36.004078 -608.93933
19.269287 -35.672405 -607.96045
19.272625 -32.172718 -573.91949
19.294178 -35.160378 -605.08423
19.301439 -31.744287 -572.53333
19.304449 -35.300652 -600.97131
19.306089 -35.326954 -607.02466
19.322733 -35.413948 -600.52478
19.335752 -35.30603 -601.94458
19.345062 -36.175976 -609.47894
19.367392 -31.794275 -569.76477
19.389278 -31.707697 -571.92615
19.407158 -31.690199 -570.19324
19.411928 -31.972105 -569.51788
19.429087 -36.50251 -610.35785
19.446005 -31.666197 -571.28223
19.448633 -31.653627 -570.70892
19.473444 -35.706486 -608.19476
19.48835 -35.858971 -608.77417
19.493334 -32.440102 -574.13068
19.49785 -36.950951 -611.25269
19.499168 -32.14756 -573.63403
19.507565 -35.403015 -603.93182
19.507998 -32.291523 -573.90106
19.50816 -35.067703 -605.90228
19.511963 -32.773109 -574.63696
19.529646 -35.115566 -605.42847
19.532457 -35.355167 -601.5318
19.536873 -35.384624 -602.95117
19.562342 -35.428795 -601.05048
19.569721 -35.359917 -602.4588
19.57329 -32.016144 -573.21484
19.593222 -31.791248 -570.13751
19.596766 -35.571873 -600.61066
19.6131 -36.484337 -610.57874
19.625034 -35.361691 -602.04938
19.625063 -31.897345 -569.86487
19.632175 -36.147568 -609.76501
19.654379 -35.099388 -606.3288
19.655861 -35.285671 -604.78143
19.661818 -31.758381 -570.56769
19.675137 -31.754292 -571.08594
19.68784 -35.510616 -600.9801
19.688187 -31.8248 -571.90796
19.68857 -35.358578 -604.4212
19.701748 -32.166969 -573.42554
19.739002 -31.804749 -571.49829
19.75683 -31.989767 -572.77704
19.769075 -32.073029 -569.6593
19.783146 -31.907299 -572.29004
19.833246 -35.786388 -608.77264
19.837204 -32.263645 -573.4245
19.837736 -32.702065 -574.13715
19.84613 -35.395115 -603.48169
19.848259 -32.551834 -573.9032
19.84886 -31.982239 -569.91003
19.852352 -35.426868 -601.91895
19.860039 -31.866978 -570.35254
19.87575 -35.395679 -607.32562
19.888739 -36.818466 -611.3941
19.909853 -31.835032 -570.94958
19.928787 -32.157085 -573.00128
19.93074 -31.909111 -571.97235
19.939775 -35.624859 -608.11011
19.945513 -35.535004 -607.75385
19.949493 -35.505997 -601.60724
19.964418 -35.299179 -607.09601
19.969864 -35.190464 -606.75482
19.971998 -35.40815 -602.60938
19.983353 -32.386532 -573.41235
19.990808 -32.113071 -569.7876
20.000669 -36.007168 -609.71667
20.016928 -35.398132 -603.19135
20.021446 -35.111893 -605.92273
20.062342 -35.15979 -605.55396
20.096804 -32.071995 -572.51849
20.104349 -35.389442 -604.01801
20.127935 -35.304928 -604.94501
20.137411 -35.134674 -606.38495
20.139063 -31.978373 -570.26154
20.147354 -31.911423 -571.34894
20.147516 -35.371117 -604.43915
20.159916 -31.913174 -570.80286
20.165783 -35.749809 -608.93073
20.180065 -36.961693 -611.90057
20.186975 -35.525566 -602.05499
20.213903 -35.411224 -607.53009
20.220106 -32.416241 -573.09424
20.239716 -32.042202 -572.19128
20.254322 -35.539749 -608.00635
20.257299 -35.899574 -609.5957
20.258095 -32.087109 -570.0293
20.268284 -35.737778 -601.34253
20.268421 -32.247116 -572.73053
20.301544 -35.204079 -605.56012
20.315784 -35.202747 -606.82568
20.320875 -36.404282 -611.05658
20.324579 -35.476536 -602.80121
20.355072 -36.122166 -610.45361
20.361996 -32.001945 -571.68365
20.369911 -32.031898 -570.30457
20.388336 -35.165627 -606.26971
20.394287 -31.998116 -570.66614
20.397709 -35.176624 -605.95203
20.399834 -31.982365 -571.18579
20.4023 -35.718311 -601.74725
20.413181 -32.094261 -570.16675
20.42877 -35.688 -608.99042
20.437336 -35.456188 -603.35168
20.448645 -35.536839 -602.70734
20.450151 -35.205597 -606.76666
20.467497 -35.351334 -604.92328
20.468716 -35.282921 -605.40411
20.525923 -35.45998 -608.00244
20.525959 -32.105637 -571.93286
20.531427 -32.226551 -572.34198
20.536688 -35.409325 -604.23212
20.549326 -32.418282 -572.7149
20.558233 -36.79636 -611.9397
20.562401 -35.328423 -607.37622
20.568029 -32.131535 -570.41193
20.577036 -36.166271 -610.80255
20.595301 -35.577648 -602.98059
20.595465 -32.085152 -571.52057
20.60445 -35.556034 -608.65253
20.612326 -32.083477 -570.99054
20.62077 -35.22649 -606.61694
20.688812 -35.755856 -602.48676
20.689711 -35.520416 -603.49597
20.697321 -35.4678 -603.86633
20.751173 -35.290699 -605.88147
20.75271 -32.228951 -571.88013
20.7582 -32.433247 -572.50452
20.761768 -35.594082 -609.04999
20.782948 -35.437679 -604.40729
20.78793 -35.475708 -608.43274
20.791853 -32.332481 -572.24878
20.796459 -32.212555 -570.77856
20.79883 -35.364796 -605.32153
20.80267 -32.203094 -571.31238
20.80373 -36.342045 -611.40894
20.806194 -35.668045 -603.18048
20.821238 -35.69965 -609.47406
20.821775 -35.399696 -607.95215
20.832603 -37.175495 -613.47791
20.834625 -35.299263 -607.08624
20.852091 -36.799828 -612.34052
20.879923 -35.536251 -608.90503
20.892933 -35.8666 -610.24695
20.904169 -35.293701 -606.59949
20.933325 -36.502048 -611.86157
20.933443 -35.528378 -604.0871
21.030266 -35.433094 -608.2804
21.069052 -35.685444 -603.81415
21.070877 -35.455982 -604.93042
21.072302 -35.384262 -607.87988
21.100279 -35.380943 -605.83789
21.112429 -35.861221 -610.45142
21.127031 -35.511887 -608.79199
21.134855 -36.640026 -612.4209
21.152594 -35.503738 -604.74426
21.176273 -35.577232 -604.46246
21.194492 -36.822266 -613.0816
21.206896 -35.930614 -603.45172
21.208517 -36.106602 -611.32825
21.209898 -35.35413 -606.62439
21.278721 -35.827084 -610.44312
21.295265 -35.386749 -607.73413
21.304436 -35.671177 -609.55542
21.335503 -35.483795 -608.49304
21.373993 -36.462517 -612.2962
21.390991 -35.466515 -605.74994
21.404827 -36.968105 -613.9455
21.41783 -35.851871 -604.1485
21.418427 -35.744167 -604.48615
21.440769 -35.580856 -605.13116
21.45026 -36.682583 -613.06653
21.50852 -36.804718 -613.72778
21.532337 -35.608101 -609.07806
21.561602 -35.530079 -605.75787
21.61635 -36.479378 -612.60992
21.632456 -35.448818 -607.92529
21.64447 -35.419563 -607.42224
21.644897 -36.209908 -612.04626
21.667521 -36.078175 -611.7157
21.68734 -35.750072 -610.23175
21.688652 -35.686596 -605.37646
21.697035 -35.44416 -606.82892
21.711481 -35.826168 -610.77228
21.729668 -35.952259 -611.36462
21.735821 -36.812897 -614.11127
21.763556 -35.91468 -604.90857
21.764688 -36.74942 -613.91528
21.777964 -37.019321 -614.57861
21.815178 -35.542206 -608.43964
21.837957 -35.660172 -609.25385
21.842121 -36.564396 -613.13806
21.86178 -35.505882 -606.65948
21.970711 -35.52494 -608.25299
21.972988 -35.842834 -605.49341
21.97595 -36.77166 -614.24127
21.983322 -35.851185 -611.22034
21.986906 -35.621014 -606.3205
21.997337 -36.058365 -605.05096
22.007778 -35.48484 -607.90796
22.014582 -35.730972 -605.92291
22.029322 -35.472206 -607.42816
22.087423 -35.635723 -608.9848
22.094929 -35.687164 -609.53278
22.097555 -35.798038 -611.00751
22.109547 -36.015671 -611.95367
22.129999 -35.85511 -611.41339
22.153946 -35.512825 -607.24158
22.163311 -35.987209 -605.44293
22.167179 -36.89764 -614.74689
22.177223 -37.231117 -615.4389
22.201521 -36.460373 -613.17468
22.292145 -35.692757 -606.68188
22.306465 -36.196266 -612.68585
22.347534 -35.523159 -607.70868
22.350876 -35.520283 -607.90979
22.376167 -35.961185 -605.83502
22.382828 -35.583145 -607.41895
22.389412 -35.557995 -608.38208
22.418867 -35.879307 -606.18512
22.447741 -35.81921 -611.32404
22.456629 -35.620087 -608.90216
22.458624 -36.147717 -605.49274
22.487701 -35.958668 -611.97516
22.511787 -36.103283 -612.60205
22.529821 -36.842377 -614.95026
22.561768 -36.536507 -613.79327
22.571207 -35.729263 -610.46185
22.584663 -36.073135 -605.89435
22.595003 -36.723801 -614.63312
22.603148 -35.746555 -607.23022
22.636599 -36.457069 -613.63403
22.650263 -35.640076 -607.93884
22.661072 -35.979546 -606.46863
22.697981 -35.624702 -608.57672
22.718504 -36.105755 -606.17303
22.726744 -35.816818 -611.21924
22.748556 -36.967999 -615.50598
22.776348 -35.902828 -611.67334
22.778889 -35.664822 -609.6701
22.797276 -35.641853 -609.11371
22.799803 -35.9286 -607.08807
22.816967 -36.148151 -606.47443
22.852461 -37.293125 -616.53705
22.879337 -35.798206 -607.78571
22.884926 -36.078655 -612.82245
22.901312 -35.993847 -612.23853
22.924835 -36.494522 -614.11267
22.971869 -36.057693 -607.26471
22.972225 -35.739525 -608.36646
22.973322 -36.166203 -613.30054
23.018158 -35.67997 -608.98169
23.029732 -36.74905 -615.22583
23.047634 -35.917828 -607.89911
23.05545 -36.873882 -615.63641
23.081398 -36.128036 -607.52759
23.088739 -37.045128 -616.14569
23.162542 -36.24506 -613.80017
23.164824 -35.699928 -610.22632
23.194641 -35.881042 -608.38208
23.218803 -36.112415 -608.01733
23.220161 -35.775986 -608.80182
23.243923 -35.694881 -609.90375
23.276209 -35.779663 -610.71326
23.284544 -36.264954 -608.02625
23.288698 -36.480339 -614.65564
23.307379 -35.865978 -608.65314
23.312679 -35.733978 -609.37341
23.332075 -36.007111 -608.4563
23.411114 -36.053333 -613.16638
23.43457 -36.100971 -613.65833
23.440701 -35.899593 -608.95605
23.441998 -36.031139 -612.60394
23.462954 -36.187622 -608.56262
23.476114 -35.940449 -611.45221
23.503641 -35.791763 -610.46979
23.522812 -35.767174 -609.80585
23.573658 -36.888538 -616.36475
23.588522 -36.073727 -608.94788
23.612812 -35.817097 -609.60742
23.617197 -36.295307 -608.79901
23.649693 -36.0037 -611.89301
23.657726 -35.943928 -609.36908
23.704899 -36.165543 -614.39099
23.706657 -36.14817 -609.11987
23.707737 -35.876892 -610.51953
23.710819 -36.423996 -615.17346
23.733978 -35.903316 -609.95013
23.742525 -35.93243 -611.06018
23.765385 -37.054707 -617.21368
23.767241 -36.026089 -612.42548
23.775494 -36.395412 -609.08551
23.825773 -36.125622 -609.48529
23.83065 -37.522987 -618.80438
23.868025 -36.00349 -613.23114
23.894798 -37.340714 -618.38416
23.899679 -36.500107 -615.65826
23.916689 -36.07246 -609.90259
23.942114 -36.329296 -609.48352
23.954144 -36.013123 -610.47382
23.956999 -36.211235 -609.6651
24.03541 -36.200729 -609.99817
24.042679 -35.993679 -611.0874
24.051889 -36.165485 -614.87659
24.057459 -35.996201 -611.66846
24.06995 -37.139896 -618.01917
24.093325 -37.63866 -619.46924
24.131525 -36.097763 -614.69977
24.155483 -36.181252 -610.39801
24.167858 -36.412025 -610.05804
24.211735 -35.968704 -613.96051
24.22439 -35.947571 -613.32556
24.233036 -36.075581 -610.89648
24.235359 -36.748791 -616.79303
24.255209 -35.995449 -611.98468
24.316317 -36.584366 -616.37762
24.369596 -36.140476 -615.11115
24.375629 -36.016155 -611.62494
24.407286 -36.20435 -610.86053
24.420805 -36.529007 -610.50586
24.442568 -35.933167 -612.97888
24.4445 -36.914513 -617.8421
24.445894 -35.972942 -612.40289
24.517483 -35.965214 -614.49908
24.519234 -36.084484 -611.367
24.524086 -36.38884 -616.02667
24.579269 -36.667145 -617.08813
24.589949 -36.333641 -610.97424
24.612204 -35.838459 -613.96045
24.630957 -36.189213 -611.22937
24.636669 -37.483608 -619.92218
24.666933 -35.826477 -613.6524
24.698792 -37.146999 -619.09259
24.816082 -35.915466 -612.95911
24.818333 -36.090355 -611.85046
24.823221 -36.541012 -617.0105
24.832541 -36.002686 -612.40411
24.886278 -35.796024 -613.59656
24.895552 -36.394314 -611.37915
24.900452 -36.423721 -616.61414
24.901304 -36.78355 -618.18768
24.903187 -36.194603 -611.65692
24.919977 -35.82756 -614.44427
24.932854 -37.400932 -620.20032
24.952745 -36.232361 -615.95642
25.000662 -37.754803 -621.18384
25.018183 -35.777203 -614.23572
25.021839 -35.798748 -613.51935
25.03392 -37.035812 -619.18463
25.035776 -35.952396 -615.05933
25.044428 -36.507877 -611.57153
25.057407 -36.119228 -612.28064
25.076366 -36.837032 -618.59387
25.135464 -36.031082 -612.81677
25.20009 -35.750763 -613.97119
25.207005 -36.490932 -611.92432
25.225777 -36.26112 -612.34198
25.238708 -35.817074 -613.56427
25.241873 -36.91922 -619.01953
25.247112 -37.148884 -619.87677
25.247242 -36.281593 -616.50073
25.275517 -36.444862 -612.16309
25.28635 -36.472363 -617.69659
25.297073 -36.362446 -617.0332
25.306744 -36.582451 -618.10645
25.355654 -36.490791 -617.88495
25.368767 -37.408043 -620.94666
25.394308 -36.216621 -612.86884
25.412956 -35.985172 -613.30048
25.49494 -37.55484 -621.40399
25.525827 -35.737152 -614.04413
25.584755 -36.648411 -612.50421
25.591461 -36.060863 -615.99445
25.600363 -36.453419 -612.87701
25.631594 -36.237019 -613.16132
25.652039 -35.707844 -614.67114
25.672798 -35.83963 -613.776
25.674623 -35.768978 -615.10559
25.683161 -37.431347 -621.33002
25.706945 -36.178288 -616.54297
25.727604 -35.829887 -615.39679
25.742758 -36.008453 -613.55896
25.762812 -36.669621 -612.67181
25.781864 -35.768166 -614.05676
25.809761 -35.700947 -614.47772
25.825417 -36.230991 -617.0343
25.836946 -36.42157 -618.18134
25.851454 -36.819805 -619.31146
25.918787 -36.354351 -613.22968
25.991438 -37.523537 -621.78705
25.994473 -37.097137 -620.56226
26.026709 -36.174232 -617.01404
26.047647 -36.277817 -617.8158
26.050911 -37.730812 -622.16711
26.06801 -36.558086 -618.86719
26.095949 -35.903271 -614.01416
26.113239 -35.74931 -614.43951
26.126848 -35.690891 -614.96698
26.133316 -37.307476 -621.49701
26.139969 -36.816486 -619.68768
26.144163 -35.743988 -615.48395
26.150522 -37.164822 -621.06189
26.157627 -36.208939 -613.5863
26.158579 -36.475689 -613.16736
26.219893 -36.390846 -618.58044
26.296734 -37.437336 -622.01819
26.342712 -36.068424 -613.91071
26.405169 -36.638165 -612.90625
26.410667 -37.787804 -622.77295
26.435764 -35.693974 -614.98181
26.464722 -35.78973 -616.04077
26.474701 -35.784523 -614.56396
26.476484 -36.850399 -620.36938
26.517059 -37.269909 -621.97736
26.535126 -36.220673 -613.77997
26.55986 -36.067078 -617.54132
26.585869 -35.960941 -614.216
26.586542 -37.594948 -622.77502
26.592926 -36.145885 -618.28113
26.608643 -35.695122 -615.66052
26.610409 -35.976749 -617.0304
26.659111 -37.111656 -621.73926
26.679041 -36.162834 -618.56641
26.702293 -37.869324 -623.22296
26.735239 -37.454914 -622.79211
26.739777 -35.710457 -614.97607
26.748436 -35.669353 -615.44666
26.779068 -35.817013 -614.60327
26.802113 -36.807495 -620.78131
26.817179 -37.525921 -623.00891
26.821659 -35.822018 -616.57812
26.824699 -36.329193 -613.63708
26.841843 -37.433659 -622.89575
26.866901 -35.971592 -614.27838
26.940306 -37.130554 -622.21222
26.944157 -36.208115 -619.1485
26.948557 -36.159798 -618.99689
26.987141 -35.660496 -615.32233
26.988905 -36.462383 -613.34052
27.018307 -36.480999 -620.08044
27.030237 -37.757175 -623.39545
27.059717 -35.854454 -617.06958
27.064699 -35.731487 -614.89325
27.076982 -35.849072 -614.56531
27.116653 -37.193005 -622.57831
27.152025 -36.040482 -614.16211
27.175161 -35.631969 -615.89581
27.19363 -36.923401 -621.82172
27.26787 -35.690975 -616.51202
27.285957 -35.859467 -617.55725
27.32176 -35.599514 -615.35944
27.335461 -37.637581 -623.50073
27.33629 -36.403961 -620.32495
27.344072 -35.706852 -614.84064
27.379225 -35.941532 -618.58197
27.388859 -37.492229 -623.36505
27.439487 -37.833069 -623.74811
27.441277 -36.48801 -613.18512
27.444761 -37.273819 -623.03882
27.445555 -35.871422 -618.19458
27.457766 -35.548706 -615.99213
27.496475 -35.838791 -614.48938
27.509167 -36.22414 -613.77972
27.518658 -36.709515 -621.6369
27.544384 -35.699047 -617.0719
27.573536 -35.934341 -618.95648
27.581631 -35.625713 -614.92957
27.59132 -36.343822 -613.5332
27.595318 -36.956062 -622.42554
27.712732 -35.493832 -616.14209
27.749857 -35.963306 -614.20746
27.751686 -36.221336 -620.29889
27.789236 -35.674618 -617.56683
27.802067 -37.818199 -623.97583
27.826208 -35.378128 -615.55536
27.847889 -36.033527 -619.75012
27.848068 -37.565197 -623.72705
27.874784 -35.532619 -614.88904
27.910904 -35.713951 -614.57483
27.915138 -35.557095 -616.76678
27.921711 -36.375282 -613.51855
27.929157 -36.441307 -621.46399
27.933952 -37.037266 -622.96869
27.945124 -36.14994 -613.90802
27.978174 -35.40572 -615.09326
28.032904 -35.225056 -615.50537
28.050863 -35.455425 -616.51666
28.067038 -36.810177 -622.63379
28.073284 -35.666451 -618.49048
28.081852 -37.758141 -624.04358
28.091246 -36.492485 -621.84753
28.097252 -35.327061 -615.99127
28.12702 -35.518955 -614.78186
28.133732 -35.253674 -615.30499
28.134865 -35.946018 -614.21826
28.13949 -35.194496 -615.4931
28.182228 -35.184673 -615.50049
28.219433 -36.189274 -621.0744
28.245638 -35.837402 -619.62897
28.254211 -35.545219 -618.18243
28.288095 -37.020199 -623.2326
28.291939 -36.474491 -622.01855
28.325451 -35.453148 -617.0929
28.326609 -37.168278 -623.48615
28.332428 -37.38549 -623.7417
28.358021 -35.245476 -615.17371
28.366678 -35.365051 -616.48401
28.378437 -35.504108 -614.75958
28.385828 -36.223457 -621.42273
28.390535 -36.251232 -613.85822
28.393559 -35.643822 -619.00562
28.39876 -36.431435 -613.56628
28.411209 -36.804276 -622.91962
28.415834 -35.514008 -618.44458
28.431507 -35.280109 -616.01013
28.457991 -37.64093 -624.03229
28.48502 -35.224342 -615.60602
28.529896 -35.226917 -615.25146
28.537024 -35.35965 -615.01251
28.589874 -35.683132 -614.57837
28.592068 -37.016865 -623.38464
28.593119 -35.504421 -614.79938
28.611044 -36.142597 -621.46606
28.6266 -35.876633 -620.63556
28.643227 -35.727859 -619.85461
28.643774 -37.216961 -623.65234
28.655447 -35.380516 -616.96771
28.667749 -35.302216 -615.35034
28.671223 -36.335629 -621.96881
28.689259 -35.336258 -616.45056
28.698917 -36.318588 -613.77423
28.713078 -36.471249 -613.52081
28.724852 -36.816883 -623.13959
28.758654 -35.417664 -618.19312
28.759968 -35.457638 -618.60071
28.760017 -35.308781 -615.91278
28.77762 -35.388287 -617.49054
28.785822 -35.9939 -614.21704
28.807011 -35.518936 -614.95215
28.834635 -35.785252 -620.57117
28.84741 -35.879208 -621.01001
28.858364 -35.844215 -620.91382
28.872602 -35.760536 -614.56329
28.941647 -37.7369 -624.18225
28.97427 -36.101597 -614.05756
29.003832 -35.399761 -615.55145
29.010532 -36.079105 -621.62665
29.023907 -36.337631 -622.17542
29.070463 -35.377678 -617.25262
29.072378 -36.639606 -622.85004
29.088802 -36.557247 -613.34131
29.100695 -35.920437 -614.35181
29.146152 -37.061699 -623.53607
29.175104 -35.365078 -616.54205
29.180153 -35.375336 -616.02753
29.18033 -35.736534 -614.71393
29.181881 -35.464405 -619.32001
29.210865 -35.54763 -615.16321
29.263777 -37.358349 -623.85699
29.269537 -35.751614 -620.89966
29.274424 -37.689362 -624.20099
29.316889 -35.635525 -620.48065
29.324339 -35.868477 -621.29608
29.324572 -35.454243 -615.56012
29.324583 -36.379078 -622.37524
29.358196 -36.982929 -623.45575
29.411234 -35.66341 -614.95148
29.515209 -37.193932 -623.76086
29.520279 -36.219048 -613.81641
29.541424 -36.135536 -621.98108
29.545134 -35.496712 -620.17212
29.565641 -37.656624 -624.30402
29.567102 -36.180763 -613.89374
29.579802 -35.393356 -619.41095
29.625935 -35.687557 -620.88348
29.648058 -35.534142 -620.46295
29.658308 -37.82262 -624.51447
29.667114 -36.414783 -622.52429
29.684406 -35.384941 -616.46045
29.686209 -36.970295 -623.52429
29.703613 -35.35854 -618.99493
29.722544 -37.307999 -624.01776
29.723757 -36.489265 -613.49005
29.751747 -36.795532 -623.22748
29.755583 -35.499062 -615.56055
29.774879 -35.432549 -615.93835
29.794483 -36.107353 -621.97498
29.805166 -37.484447 -624.29333
29.835289 -37.123886 -623.8623
29.880798 -37.724586 -624.56952
29.928699 -35.475975 -620.2818
29.929852 -35.563934 -620.62317
29.931709 -35.422775 -619.98737
29.953533 -35.37579 -619.49152
29.963104 -35.787529 -621.18738
30.046844 -36.944347 -623.66901
30.10047 -36.000088 -614.4248
30.105186 -37.090797 -624.07001
30.158552 -36.377018 -613.80835
30.16753 -36.701401 -623.11377
30.173573 -35.690079 -615.17468
30.179497 -35.382751 -618.09467
30.180576 -37.23843 -624.36462
30.199873 -37.470005 -624.56708
30.226641 -36.160183 -614.17517
30.247906 -35.874454 -614.73462
30.280172 -37.074726 -624.23627
30.285233 -35.882507 -621.383
30.361786 -35.50824 -620.31427
30.379162 -36.879028 -623.64612
30.389021 -35.400261 -616.573
30.394716 -37.097698 -624.33075
30.446024 -37.244278 -624.50269
30.482416 -36.168125 -622.14752
30.485561 -37.479073 -624.67462
30.508228 -35.638149 -620.68701
30.537689 -36.181164 -614.20007
30.56632 -35.474079 -616.15308
30.566845 -35.712196 -615.24762
30.597383 -36.016792 -614.48688
30.6609 -36.376778 -622.59137
30.662937 -35.552105 -615.86505
30.717691 -36.880806 -623.71259
30.726051 -35.377953 -618.93079
30.731089 -35.369797 -617.51862
30.750624 -37.518261 -624.71912
30.764427 -37.272194 -624.54156
30.771235 -35.883739 -614.7774
30.782108 -36.724548 -623.2851
30.891905 -37.076279 -624.21393
30.930012 -35.392273 -616.96521
30.963766 -36.347755 -622.55237
30.969103 -35.773106 -615.09912
30.973743 -36.859653 -623.61688
30.984646 -35.465019 -616.40198
31.027142 -36.158916 -622.09485
31.041632 -36.176647 -614.20154
31.057119 -37.463684 -624.64435
31.059698 -35.646275 -615.58887
31.0833 -36.531704 -622.93597
31.095724 -37.239227 -624.461
31.105536 -35.863186 -621.19977
31.167101 -37.301708 -624.49792
31.185827 -36.007111 -614.46222
31.24699 -36.942047 -623.74158
31.304531 -35.407898 -619.41528
31.309971 -36.709816 -623.2619
31.365921 -37.689381 -624.68274
31.397207 -35.670597 -620.61829
31.415417 -35.458744 -619.79956
31.426754 -35.358028 -617.51886
31.448896 -35.372326 -618.82477
31.466835 -36.308193 -622.40967
31.499941 -37.144638 -624.00519
31.508825 -36.023605 -621.56873
31.509838 -36.926765 -623.60022
31.515903 -36.468914 -613.70734
31.525795 -35.872261 -614.71405
31.561508 -35.544407 -620.16962
31.680632 -35.553429 -616.06189
31.704124 -37.582817 -624.46655
31.735369 -35.467468 -619.72253
31.746593 -36.492443 -622.77429
31.76177 -37.395988 -624.20874
31.767763 -37.067757 -623.69354
31.776993 -35.689217 -620.55853
31.777876 -36.348923 -622.39728
31.780607 -36.158062 -614.07495
31.78767 -35.347851 -617.72919
31.808508 -35.771793 -615.03796
31.840551 -36.615673 -622.95618
31.909899 -35.601963 -620.18726
31.93639 -35.856228 -614.70099
31.958927 -35.396255 -617.04572
31.982752 -35.378628 -618.70923
31.991131 -35.461277 -616.58801
32.022011 -35.981205 -614.35071
32.061089 -36.408234 -622.41602
32.069389 -36.076996 -614.16669
32.08213 -36.022465 -621.33356
32.100311 -35.600689 -615.99878
32.107437 -35.45462 -619.26831
32.119545 -35.390862 -617.41858
32.124386 -35.376076 -618.14673
32.171684 -35.792313 -620.63989
32.194569 -37.238934 -623.69263
32.203426 -36.273075 -613.80353
32.218967 -35.530212 -619.61945
32.2304 -36.71563 -622.94086
32.23687 -35.826473 -614.8316
32.269001 -35.629375 -619.9762
32.290028 -36.521744 -622.54346
32.360134 -35.490391 -619.13098
32.373806 -35.957722 -614.49072
32.379673 -35.433926 -618.05591
32.39193 -35.50666 -616.7251
32.416447 -35.832073 -614.9079
32.418461 -36.104126 -614.11218
32.430428 -35.707699 -615.70831
32.4352 -35.591354 -616.40411
32.440098 -37.615387 -624.05157
32.454659 -36.118275 -621.37524
32.466114 -35.484184 -617.17255
32.525879 -36.81155 -622.9079
32.527531 -37.193993 -623.40405
32.538555 -35.846497 -620.53204
32.544022 -36.321373 -613.68683
32.568607 -35.554771 -618.91937
32.58527 -36.620312 -622.51447
32.586601 -35.63615 -619.47339
32.602528 -35.716419 -619.93121
32.607086 -35.526283 -617.8244
32.70742 -35.875145 -620.44452
32.712605 -35.923008 -614.89935
32.716263 -36.560574 -622.21442
32.726151 -35.632801 -616.88916
32.739662 -36.958004 -622.94104
32.739792 -35.711674 -616.24548
32.750244 -35.82658 -615.36096
32.766209 -35.629978 -618.19989
32.79562 -35.69136 -618.94281
32.800659 -36.138161 -621.15692
32.822327 -36.060139 -614.42169
32.827637 -36.377155 -613.63788
32.885731 -36.544888 -622.01025
32.889301 -36.175182 -614.04803
32.952507 -35.727901 -617.31451
32.982479 -35.946922 -620.25854
33.00988 -36.100212 -620.79968
33.019539 -37.282761 -623.0611
33.036404 -36.045277 -614.84583
33.045105 -35.848831 -619.51929
33.050926 -35.843445 -616.06934
33.062363 -36.849529 -622.31897
33.068653 -35.927197 -615.57306
33.089657 -36.683445 -622.01019
33.091854 -35.821735 -616.68677
33.103905 -35.905277 -619.80646
33.130363 -35.887596 -618.39185
33.155666 -36.175686 -614.33923
33.185509 -36.538433 -621.59094
33.209015 -35.900742 -617.84265
33.226669 -36.172161 -620.60632
33.242569 -36.337254 -613.9892
33.251163 -36.128017 -614.81274
33.285133 -36.081646 -615.28717
33.288261 -35.975288 -618.91083
33.358494 -36.1642 -620.17975
33.382069 -37.398319 -622.73071
33.386703 -36.071312 -615.797
33.395302 -35.989021 -617.54053
33.427071 -36.686356 -621.48297
33.446507 -36.490383 -621.03046
33.477196 -36.137295 -619.64185
33.507343 -36.104015 -619.23035
33.520432 -37.221935 -622.22089
33.52626 -36.425716 -620.63098
33.590927 -36.099525 -617.14313
33.59713 -36.141689 -616.31824
33.642494 -36.666859 -620.97742
33.680305 -36.392197 -620.0199
33.732853 -36.625839 -620.59039
33.762718 -37.064972 -621.52032
33.78595 -36.182785 -618.08411
33.811962 -36.225269 -618.86975
33.826874 -36.201862 -618.55084
33.909573 -36.501823 -619.67462
33.951412 -36.372746 -615.52759
33.953568 -36.323833 -616.66833
33.986366 -37.04475 -620.8418
33.991867 -36.355995 -618.95184
34.036293 -36.795181 -620.03589
34.036842 -36.458569 -615.14709
34.168133 -36.54089 -619.13049
34.178215 -36.806118 -619.65936
34.181583 -36.471397 -617.09521
34.185516 -36.423111 -618.01666
34.21101 -36.490643 -616.17786
34.23196 -36.472027 -618.69897
34.337257 -36.559944 -618.14166
34.361691 -36.648422 -618.90417
34.378403 -36.667164 -617.18286
34.384418 -36.620434 -618.52576
34.465042 -36.752239 -617.81348
34.539112 -36.827335 -618.44623
23.259462 -39.545574 -621.88525
23.366077 -39.155857 -621.50616
23.58386 -39.572819 -622.19971
23.90089 -39.080025 -621.94769
23.905266 -38.534588 -621.07166
23.957907 -38.761127 -621.55511
24.049784 -39.206718 -622.22644
24.171196 -38.362694 -621.12628
24.177704 -38.980156 -622.12067
24.22636 -38.720028 -621.8302
24.529144 -38.631138 -622.117
24.567177 -38.344536 -621.72485
24.646856 -38.09314 -621.37952
24.711727 -38.644573 -622.36047
24.790302 -39.645515 -623.48486
24.881514 -38.349232 -622.17462
24.919779 -39.21014 -623.14716
