ply
format ascii 1.0
comment PCL generated
element vertex 1245
property float x
property float y
property float z
property uchar red
property uchar green
property uchar blue
element camera 0
property float view_px
property float view_py
property float view_pz
property float x_axisx
property float x_axisy
property float x_axisz
property float y_axisx
property float y_axisy
property float y_axisz
property float z_axisx
property float z_axisy
property float z_axisz
property float focal
property float scalex
property float scaley
property float centerx
property float centery
property int viewportx
property int viewporty
property float k1
property float k2
end_header
69.635925 12.278534 77.063225 0 255 0
55.73407 10.628914 69.439438 0 255 0
55.339539 -2.070343 47.203243 0 255 0
68.268494 11.99102 76.090073 0 255 0
8.6216431 0.60713196 35.907482 0 255 0
66.192627 -0.85338593 53.02589 0 255 0
13.213074 18.148796 68.0019 0 255 0
71.008789 12.256714 77.481606 0 255 0
66.835449 14.420719 79.81974 0 255 0
72.07782 14.213894 81.248558 0 255 0
44.122925 -3.455162 40.950733 0 255 0
9.5403442 -0.068244934 35.032207 0 255 0
60.307617 11.569874 72.622856 0 255 0
12.123718 17.469021 66.433784 0 255 0
41.945862 14.873089 72.099518 0 255 0
54.147827 -2.3406601 46.304157 0 255 0
72.048157 0.63332367 57.591515 0 255 0
70.599731 -0.25140381 55.55537 0 255 0
62.40332 12.423176 74.814026 0 255 0
55.899231 11.743645 71.404472 0 255 0
12.225891 -0.82610321 34.610462 0 255 0
22.548401 17.940468 70.796196 0 255 0
2.6737671 8.0648041 46.821728 0 255 0
17.160217 -1.0313263 35.937119 0 255 0
55.296204 11.491928 70.755424 0 255 0
2.2067871 12.552097 54.469856 0 255 0
3.9354248 15.760468 60.641788 0 255 0
33.038757 15.76519 70.587906 0 255 0
2.0800171 13.056416 55.298454 0 255 0
13.841797 -0.80594635 35.188591 0 255 0
1.9845581 11.595978 52.722874 0 255 0
65.055908 1.6131668 56.88789 0 255 0
31.526184 15.931503 70.355515 0 255 0
62.665039 14.328285 78.198753 0 255 0
60.671265 12.07011 73.587654 0 255 0
62.873352 12.307106 74.751389 0 255 0
66.734009 -0.73718262 53.367783 0 255 0
1.9002075 10.985947 51.62849 0 255 0
2.0686035 11.735558 52.987755 0 255 0
36.241699 15.350956 70.948944 0 255 0
3.1868286 5.6259918 42.733253 0 255 0
46.230957 -3.302887 41.893063 0 255 0
2.3892822 14.079311 57.17239 0 255 0
8.9477539 17.243851 64.917023 0 255 0
52.147034 -2.5609589 45.201874 0 255 0
6.0878906 2.6465378 38.526524 0 255 0
13.680542 18.375633 68.484161 0 255 0
51.564575 14.629379 74.897377 0 255 0
16.811401 18.797585 70.281105 0 255 0
43.827881 14.853012 72.63929 0 255 0
55.431763 11.251991 70.333534 0 255 0
65.442505 1.6720581 57.079166 0 255 0
55.430237 8.3920288 65.354866 0 255 0
27.856323 -3.0732193 35.980145 0 255 0
2.1452026 12.868889 54.94305 0 255 0
12.241577 17.591606 66.609863 0 255 0
71.135498 14.451241 81.253288 0 255 0
36.879456 15.301975 71.034813 0 255 0
67.36731 14.481148 80.017769 0 255 0
65.852295 14.43372 79.414055 0 255 0
62.175964 12.44664 74.70031 0 255 0
16.324829 -0.89750671 35.818367 0 255 0
2.8983154 6.1060333 43.421722 0 255 0
68.655701 -0.44586182 54.472736 0 255 0
59.138367 -1.4978104 49.39175 0 255 0
14.427612 18.63052 69.152458 0 255 0
34.798462 -3.9684448 36.778328 0 255 0
58.564148 14.427002 76.907196 0 255 0
4.5214844 16.245182 61.615398 0 255 0
71.90863 12.334862 77.822586 0 255 0
4.2175903 4.5120544 41.089661 0 255 0
65.280273 14.398369 79.147911 0 255 0
60.579285 12.000011 73.366936 0 255 0
71.283813 1.905365 59.452045 0 255 0
48.407715 -3.0304871 43.048523 0 255 0
64.209167 -0.9786377 52.014793 0 255 0
24.061523 17.565434 70.577553 0 255 0
73.317017 13.240875 79.871033 0 255 0
72.154602 0.21576691 56.800491 0 255 0
35.300903 15.454475 70.734047 0 255 0
60.425415 11.710304 72.796486 0 255 0
55.879639 14.515984 76.12674 0 255 0
28.299683 -3.116478 36.02058 0 255 0
14.936523 -0.81239319 35.46339 0 255 0
23.595459 17.727745 70.685333 0 255 0
69.305298 -0.36753082 54.802666 0 255 0
1.9974365 10.872009 51.374958 0 255 0
7.5840454 17.297035 64.461937 0 255 0
70.189575 12.300766 77.141724 0 255 0
9.8496704 -0.30553436 34.594936 0 255 0
60.266602 14.401283 77.407494 0 255 0
25.037842 17.289551 70.40197 0 255 0
71.612366 1.8280563 59.39761 0 255 0
5.9572144 16.909916 63.223637 0 255 0
2.1377563 11.931564 53.255051 0 255 0
70.295288 14.48457 80.971153 0 255 0
12.344543 17.713936 66.799408 0 255 0
51.039368 -2.6868286 44.507801 0 255 0
12.910583 18.103313 67.666618 0 255 0
72.068665 0.054908752 56.454838 0 255 0
72.294373 12.472244 78.142502 0 255 0
64.086609 12.289101 75.020729 0 255 0
5.5836182 16.777508 62.853168 0 255 0
14.565918 -0.77867889 35.365566 0 255 0
12.707886 17.995399 67.40419 0 255 0
5.0858765 16.606312 62.380383 0 255 0
35.903564 15.428387 70.853584 0 255 0
29.447205 16.341202 70.236244 0 255 0
1.8739624 11.194313 51.862232 0 255 0
73.043518 13.745789 80.606903 0 255 0
57.898438 2.5279465 55.90921 0 255 0
61.211426 14.390877 77.684998 0 255 0
71.493958 14.458187 81.313354 0 255 0
16.385681 18.85511 70.143707 0 255 0
61.376892 1.8903961 55.98275 0 255 0
21.230164 18.284325 70.803658 0 255 0
71.872192 1.7236176 59.275578 0 255 0
53.32196 14.615799 75.377327 0 255 0
59.119385 11.736191 72.344452 0 255 0
44.897949 14.831558 72.872742 0 255 0
56.567322 -1.8268738 47.865601 0 255 0
13.096924 -0.75895691 34.87772 0 255 0
54.659119 2.7067108 55.100925 0 255 0
2.0950928 13.665043 56.218979 0 255 0
32.823547 -3.7141953 36.465832 0 255 0
2.5701904 8.2491226 46.954441 0 255 0
62.133057 14.381092 77.966759 0 255 0
11.151855 -0.66322327 34.371029 0 255 0
30.902954 16.080425 70.255966 0 255 0
29.85907 -3.276947 36.209942 0 255 0
1.8739014 11.353699 52.114651 0 255 0
24.585205 17.427063 70.440353 0 255 0
1.9334717 11.504822 52.396511 0 255 0
53.503784 -2.2980194 45.984585 0 255 0
56.275452 11.842537 71.540497 0 255 0
2.8647461 7.7043762 46.096752 0 255 0
59.763 11.644047 72.383965 0 255 0
68.521179 14.500465 80.345825 0 255 0
66.066711 12.25621 75.599953 0 255 0
15.778748 18.832298 69.869217 0 255 0
30.934143 -3.4600677 36.244774 0 255 0
56.706055 2.3465576 55.150898 0 255 0
2.0929565 13.529842 55.963192 0 255 0
15.844727 -0.80979919 35.701336 0 255 0
9.5325317 17.302731 65.067894 0 255 0
59.173157 14.436398 77.028313 0 255 0
42.593506 -3.6121826 39.954762 0 255 0
34.907166 15.532181 70.644905 0 255 0
61.12854 12.219551 73.832848 0 255 0
43.523193 14.917282 72.514885 0 255 0
16.084778 18.863518 70.010986 0 255 0
68.719788 12.177017 76.348274 0 255 0
22.549561 -2.1168976 35.704239 0 255 0
13.414429 18.380646 68.257393 0 255 0
10.172363 -0.45092773 34.376255 0 255 0
2.0994263 13.376823 55.683975 0 255 0
17.695129 18.78257 70.417076 0 255 0
17.227234 18.84222 70.358658 0 255 0
2.1242676 13.810658 56.443844 0 255 0
31.584229 -3.5401611 36.306805 0 255 0
18.341614 18.693794 70.477966 0 255 0
2.1530762 10.197678 50.158775 0 255 0
7.1730347 17.316914 64.261169 0 255 0
72.131165 12.416603 77.915855 0 255 0
68.206909 12.059742 75.954033 0 255 0
5.526062 3.213913 39.153328 0 255 0
60.400085 -1.3381805 49.970047 0 255 0
20.645325 18.41885 70.777687 0 255 0
13.96405 18.584911 68.783882 0 255 0
20.227356 -1.7582779 35.517864 0 255 0
27.544739 16.837978 70.380096 0 255 0
39.823425 15.120003 71.582924 0 255 0
6.6818237 17.241558 63.957119 0 255 0
55.884644 -1.8962479 47.453148 0 255 0
2.1807861 10.357651 50.43816 0 255 0
63.344299 12.206234 74.542297 0 255 0
9.1483765 0.21952057 35.172985 0 255 0
21.816833 18.198166 70.788414 0 255 0
40.971069 15.010292 71.780594 0 255 0
62.508423 12.46032 74.697083 0 255 0
71.435669 12.339195 77.534508 0 255 0
8.7923584 0.46884155 35.480896 0 255 0
67.788086 12.093536 75.859077 0 255 0
2.4779663 8.4194107 47.16095 0 255 0
71.862244 14.424305 81.30555 0 255 0
2.7183838 6.4883804 43.879269 0 255 0
2.147583 10.05513 49.891582 0 255 0
70.138367 -0.19763184 55.265934 0 255 0
14.20636 18.652264 68.970581 0 255 0
45.15802 -3.3231812 41.295094 0 255 0
4.9723511 3.8729706 40.094418 0 255 0
8.9215088 0.3724823 35.350788 0 255 0
38.293823 15.249336 71.272438 0 255 0
2.3586426 9.6376038 49.232006 0 255 0
59.783142 14.44986 77.217461 0 255 0
2.8492432 7.8811493 46.341122 0 255 0
73.342529 13.096905 79.49102 0 255 0
37.804382 -4.0083084 37.581825 0 255 0
4.2097168 16.116219 61.131554 0 255 0
6.2540894 2.5380478 38.198025 0 255 0
30.202209 16.231293 70.206703 0 255 0
37.290405 -4.0539474 37.323185 0 255 0
63.645203 12.211639 74.631218 0 255 0
2.4307861 8.5849075 47.413773 0 255 0
66.834534 12.221218 75.734169 0 255 0
2.1664429 10.65329 50.920246 0 255 0
11.658203 17.275055 65.684715 0 255 0
26.132996 -2.7039642 35.856441 0 255 0
56.665222 11.912827 71.720276 0 255 0
2.9855957 5.9778595 43.058472 0 255 0
2.1865234 13.958977 56.675446 0 255 0
3.4431763 5.4059525 42.219143 0 255 0
57.744141 11.989002 72.219093 0 255 0
2.7924194 6.3229752 43.592022 0 255 0
2.8126831 7.4113159 45.489407 0 255 0
13.508057 -0.71190643 35.000496 0 255 0
21.061584 -1.9194946 35.478031 0 255 0
3.6035156 5.2201309 41.940968 0 255 0
72.852051 13.973598 80.822762 0 255 0
6.1831055 17.090828 63.48016 0 255 0
71.133484 -0.1435318 55.666164 0 255 0
68.033691 14.576504 80.220276 0 255 0
38.300964 -3.9419098 37.837627 0 255 0
27.293335 -2.890564 35.90807 0 255 0
7.6277466 1.3950119 36.648956 0 255 0
2.2442627 12.808125 54.673031 0 255 0
37.503357 -4.0312347 37.407017 0 255 0
55.440002 11.712284 70.931145 0 255 0
5.8345947 2.9465714 38.735283 0 255 0
65.209167 -0.8650589 52.375843 0 255 0
43.555847 -3.4154968 40.541233 0 255 0
8.1585693 1.0310822 36.191055 0 255 0
72.188721 1.5053406 58.878315 0 255 0
17.537659 -0.99534607 35.862141 0 255 0
8.6359253 0.60779572 35.6119 0 255 0
19.198425 18.625519 70.576363 0 255 0
32.38739 -3.6029358 36.394367 0 255 0
5.0645142 3.777092 39.906189 0 255 0
61.655396 12.339462 74.133614 0 255 0
64.877075 1.6812744 56.684086 0 255 0
71.76123 -0.067184448 55.988972 0 255 0
57.111023 11.978329 71.948029 0 255 0
57.769531 -1.5874786 48.557426 0 255 0
43.231506 -3.4606934 40.330555 0 255 0
64.302979 14.465591 78.723663 0 255 0
58.194336 14.532742 76.754372 0 255 0
8.3450928 17.413296 64.743408 0 255 0
2.9641724 14.890469 58.512917 0 255 0
42.463684 14.977257 72.152634 0 255 0
68.604065 12.135605 76.133842 0 255 0
7.8457642 1.2517853 36.442593 0 255 0
62.325378 12.510544 74.641548 0 255 0
62.278137 1.9933014 56.321003 0 255 0
60.715881 14.479507 77.517982 0 255 0
23.392151 17.892231 70.709641 0 255 0
5.4068604 3.3543625 39.261936 0 255 0
62.963379 -1.0214996 51.300037 0 255 0
7.881897 17.424709 64.589539 0 255 0
7.0822144 1.8496552 37.209553 0 255 0
15.44812 -0.72893524 35.578461 0 255 0
43.913391 -3.3637238 40.713718 0 255 0
65.317017 12.407883 75.468712 0 255 0
9.869873 17.372559 65.170532 0 255 0
60.162415 11.665672 72.412056 0 255 0
18.076843 -1.1181488 35.791271 0 255 0
12.628845 -0.71552277 34.630039 0 255 0
71.067749 2.0020828 59.314701 0 255 0
6.934082 17.359489 64.139641 0 255 0
39.101807 15.235878 71.424591 0 255 0
64.32782 12.431732 75.158455 0 255 0
63.341248 14.495739 78.412323 0 255 0
64.911377 12.459648 75.4049 0 255 0
41.95697 14.998138 71.981842 0 255 0
72.52301 14.21891 81.063751 0 255 0
2.2145996 10.533531 50.639088 0 255 0
66.129272 14.580154 79.508148 0 255 0
10.68457 -0.53466797 34.267963 0 255 0
4.0571289 16.049866 60.86747 0 255 0
40.28064 -3.7541504 38.76926 0 255 0
37.632751 15.33728 71.090752 0 255 0
70.741638 14.583572 81.08429 0 255 0
10.437805 17.326996 65.264725 0 255 0
8.2762451 0.95323181 36.029305 0 255 0
69.784485 14.565308 80.720139 0 255 0
65.588501 14.556065 79.268509 0 255 0
41.985291 -3.6412125 39.537407 0 255 0
32.196899 16.023045 70.416313 0 255 0
43.112427 14.996498 72.357178 0 255 0
61.698303 14.473694 77.792191 0 255 0
11.863342 17.441566 65.937721 0 255 0
3.4996338 15.396965 59.523052 0 255 0
16.906799 18.965225 70.310661 0 255 0
49.082458 14.726894 73.921776 0 255 0
2.7401123 14.587204 57.852283 0 255 0
33.408569 -3.6960297 36.505699 0 255 0
72.823975 12.703747 78.507614 0 255 0
69.072144 12.301979 76.526031 0 255 0
9.2768555 0.17443848 34.99876 0 255 0
39.019653 -3.8364258 38.174854 0 255 0
45.679138 14.883331 73.028206 0 255 0
41.457642 15.028252 71.833069 0 255 0
55.153381 6.2639008 61.255932 0 255 0
55.378235 -1.9506226 47.036076 0 255 0
63.483398 12.218582 74.461906 0 255 0
9.2372437 17.419464 64.98571 0 255 0
73.253296 13.645355 80.278366 0 255 0
6.4221802 17.260715 63.745716 0 255 0
11.044556 17.262596 65.325249 0 255 0
19.758179 18.615593 70.655304 0 255 0
70.572815 2.0433197 59.163849 0 255 0
14.736328 18.845409 69.33342 0 255 0
2.2647095 9.8390961 49.398815 0 255 0
6.7674561 2.1288757 37.517597 0 255 0
19.786804 -1.5715942 35.52261 0 255 0
67.336243 -0.51840973 53.591412 0 255 0
44.413452 14.961277 72.702347 0 255 0
61.259644 -1.1789017 50.35944 0 255 0
2.2937622 14.163086 56.92252 0 255 0
62.533142 14.507961 78.093704 0 255 0
2.7849121 8.0896912 46.518894 0 255 0
51.665222 -2.5175781 44.749912 0 255 0
52.73761 -2.3251343 45.448734 0 255 0
2.2798462 12.26083 53.601147 0 255 0
28.967163 -3.0348511 36.092464 0 255 0
13.621948 18.607445 68.514267 0 255 0
29.382629 -3.0762253 36.158981 0 255 0
66.664429 14.645233 79.727661 0 255 0
23.688416 -2.1801224 35.768272 0 255 0
13.132141 18.400551 67.978951 0 255 0
4.6751709 4.2001343 40.375454 0 255 0
35.617432 -3.9015198 36.840214 0 255 0
15.097351 18.898972 69.513306 0 255 0
22.224915 -2.0120773 35.551159 0 255 0
67.049744 14.654247 79.862694 0 255 0
12.444153 17.99128 67.022034 0 255 0
2.4866333 9.5804291 48.983364 0 255 0
5.644165 3.1513214 38.869091 0 255 0
14.190369 -0.63908386 35.18959 0 255 0
64.917969 14.553181 78.952583 0 255 0
7.3051147 1.6793365 36.865112 0 255 0
60.667114 12.17263 73.348206 0 255 0
62.193237 12.52153 74.473564 0 255 0
11.366516 17.270901 65.378403 0 255 0
64.602051 1.7588348 56.558979 0 255 0
2.8664551 7.6745605 45.771595 0 255 0
37.015503 -3.9783936 37.153065 0 255 0
55.655762 10.073929 67.974884 0 255 0
3.092041 15.076027 58.726845 0 255 0
62.369751 -1.0525589 50.896732 0 255 0
16.657654 -0.75272369 35.806816 0 255 0
29.294373 16.5354 70.207352 0 255 0
69.049866 14.623394 80.454559 0 255 0
72.130432 1.7242432 59.055531 0 255 0
3.75 5.0289993 41.454853 0 255 0
54.679749 3.0045242 55.323288 0 255 0
2.137146 10.90863 51.13546 0 255 0
12.054749 17.636108 66.226982 0 255 0
45.472595 -3.2232513 41.33382 0 255 0
56.953796 2.4959259 55.201656 0 255 0
69.478821 12.373028 76.663849 0 255 0
20.67627 -1.7587051 35.403187 0 255 0
40.397705 15.158897 71.580582 0 255 0
60.092163 -1.2989655 49.657719 0 255 0
62.447144 12.515194 74.501396 0 255 0
23.20752 18.033371 70.703674 0 255 0
2.0992432 11.69101 52.45591 0 255 0
24.657043 17.575134 70.392792 0 255 0
50.342224 -2.673111 43.924179 0 255 0
65.687134 -0.75415039 52.504021 0 255 0
68.85083 2.1481171 58.634022 0 255 0
23.285278 -2.0825043 35.709057 0 255 0
14.181152 18.834419 69.002647 0 255 0
12.192444 17.80685 66.51461 0 255 0
12.637634 18.217964 67.38102 0 255 0
63.502808 -0.91308594 51.449993 0 255 0
18.941589 18.795532 70.5252 0 255 0
39.007812 15.325394 71.33847 0 255 0
43.908325 15.053356 72.538177 0 255 0
73.4375 13.367935 79.677818 0 255 0
72.29303 1.4672623 58.574612 0 255 0
70.735291 12.384617 77.033852 0 255 0
61.99176 12.490162 74.230186 0 255 0
57.539795 -1.5549164 48.266132 0 255 0
34.339233 15.779747 70.510376 0 255 0
16.538147 19.100418 70.207947 0 255 0
63.8255 14.606724 78.535507 0 255 0
61.767456 2.0467987 55.971912 0 255 0
66.554321 -0.61799622 52.968403 0 255 0
2.2277222 13.210503 55.066845 0 255 0
46.060913 -3.1385345 41.580082 0 255 0
71.724976 14.630341 81.268196 0 255 0
50.501831 14.817268 74.344543 0 255 0
72.369263 12.578529 77.914268 0 255 0
60.33728 11.811646 72.470268 0 255 0
17.273193 19.071079 70.394646 0 255 0
55.720093 11.200836 69.82653 0 255 0
72.104797 12.520126 77.715416 0 255 0
2.7885742 7.1814117 44.749905 0 255 0
42.950317 15.097229 72.234901 0 255 0
72.07312 0.10171509 56.077461 0 255 0
18.338928 18.914661 70.467506 0 255 0
65.252991 1.7837982 56.673771 0 255 0
71.437683 14.675682 81.221474 0 255 0
55.531982 9.0458374 65.991409 0 255 0
56.606384 12.007351 71.510597 0 255 0
34.776672 -3.7475815 36.633469 0 255 0
46.352905 14.95911 73.140129 0 255 0
45.190735 15.02095 72.848633 0 255 0
14.84906 -0.56660461 35.358013 0 255 0
2.2254639 11.816978 52.592896 0 255 0
66.474854 1.8994675 57.27356 0 255 0
10.415039 -0.39796448 34.13036 0 255 0
2.4047241 12.639473 54.079338 0 255 0
7.9296265 1.2509766 36.145874 0 255 0
2.0040283 11.27132 51.560272 0 255 0
3.2055054 15.23373 58.866428 0 255 0
3.6414185 15.705338 59.835392 0 255 0
63.981873 12.393829 74.678093 0 255 0
2.3044434 11.952511 52.845638 0 255 0
9.7840576 -0.1574173 34.3241 0 255 0
54.833374 3.7313538 56.476082 0 255 0
17.716492 19.03669 70.436668 0 255 0
65.920654 14.708824 79.36499 0 255 0
8.6953125 17.580143 64.814659 0 255 0
25.045105 17.541027 70.321182 0 255 0
71.193848 12.424759 77.174492 0 255 0
20.1427 18.716927 70.690468 0 255 0
71.585815 0.021133423 55.719921 0 255 0
55.799438 11.036301 69.498764 0 255 0
55.477173 11.619122 70.402351 0 255 0
10.170593 -0.33289337 34.12846 0 255 0
1.9986572 11.560009 52.03223 0 255 0
55.194763 2.6631317 54.712875 0 255 0
3.7851562 5.0203094 41.258488 0 255 0
27.919434 -2.8115158 35.863144 0 255 0
2.0651855 11.654846 52.209354 0 255 0
16.201477 19.127888 70.036339 0 255 0
54.926819 2.7207184 54.705597 0 255 0
19.65155 -1.4134521 35.462608 0 255 0
2.1623535 13.772179 55.9118 0 255 0
57.040405 12.065132 71.681755 0 255 0
54.770935 2.8056717 54.791843 0 255 0
71.618713 2.0341949 59.199104 0 255 0
62.88562 14.654373 78.176819 0 255 0
13.893372 -0.53201294 35.015892 0 255 0
13.862793 18.907429 68.836731 0 255 0
28.440369 -2.8563538 35.937965 0 255 0
2.5845337 8.4698563 46.819271 0 255 0
6.5213013 17.487434 63.85709 0 255 0
69.453796 14.730911 80.544655 0 255 0
24.822266 17.628933 70.346321 0 255 0
13.346802 18.726803 68.336212 0 255 0
2.8156738 14.885429 58.053944 0 255 0
62.055359 2.1246185 56.073429 0 255 0
60.483887 11.972164 72.674034 0 255 0
62.674988 12.494366 74.329918 0 255 0
42.904236 -3.4025269 39.911068 0 255 0
72.371826 0.32888794 56.46769 0 255 0
54.105957 14.810242 75.430939 0 255 0
31.914551 -3.3280487 36.283947 0 255 0
29.807678 16.546558 70.151161 0 255 0
72.005737 1.9279175 59.116184 0 255 0
53.015381 14.850559 75.116653 0 255 0
6.0458374 17.289494 63.313541 0 255 0
66.040833 12.492393 75.451424 0 255 0
58.599609 12.064766 72.165497 0 255 0
11.582275 -0.49841309 34.242409 0 255 0
63.803467 12.361755 74.457184 0 255 0
1.994873 11.445152 51.752708 0 255 0
13.241882 -0.5497818 34.718002 0 255 0
15.923218 19.121582 69.868805 0 255 0
68.224487 14.784924 80.181915 0 255 0
10.745056 -0.41373444 34.100929 0 255 0
41.636536 -3.5293961 39.225628 0 255 0
37.418823 15.509613 70.91964 0 255 0
61.077454 12.359268 73.514046 0 255 0
72.40863 0.67837524 57.05151 0 255 0
2.2306519 13.455711 55.322567 0 255 0
31.253601 16.313473 70.206207 0 255 0
31.737427 16.257214 70.273003 0 255 0
12.300964 18.074749 66.793869 0 255 0
34.292297 -3.6308365 36.528172 0 255 0
52.413147 -2.2827072 45.062527 0 255 0
2.1652222 13.922935 56.104824 0 255 0
2.3907471 12.279247 53.319893 0 255 0
55.078796 -1.9617004 46.527706 0 255 0
16.830261 19.222446 70.33091 0 255 0
61.300049 12.422554 73.681145 0 255 0
10.265747 17.601604 65.261879 0 255 0
65.2771 14.733772 79.056496 0 255 0
57.106323 -1.5917358 47.852734 0 255 0
53.26062 -2.1453018 45.573448 0 255 0
30.756287 16.397282 70.156288 0 255 0
67.52771 14.819481 79.967773 0 255 0
30.268433 16.48251 70.137733 0 255 0
72.781311 12.75909 78.175224 0 255 0
62.341736 12.560154 74.260582 0 255 0
30.433411 -3.0541077 36.188107 0 255 0
51.168762 14.922497 74.550179 0 255 0
12.887512 18.548786 67.788139 0 255 0
56.800232 2.6071625 55.037861 0 255 0
14.431274 19.067596 69.209892 0 255 0
59.579102 14.683853 76.998352 0 255 0
22.19043 18.402939 70.700935 0 255 0
60.825439 12.296158 73.266251 0 255 0
17.092407 -0.67434692 35.756878 0 255 0
15.486572 19.103554 69.628174 0 255 0
42.367615 -3.4423218 39.569809 0 255 0
2.1765747 14.076954 56.334396 0 255 0
68.992981 12.362274 76.167549 0 255 0
3.9088745 4.9324188 41.007103 0 255 0
73.161865 14.051014 80.524712 0 255 0
55.6745 14.772438 75.806496 0 255 0
23.896729 18.013187 70.593483 0 255 0
14.849731 19.086861 69.371208 0 255 0
60.591492 12.146729 72.913551 0 255 0
73.537292 13.361134 79.445992 0 255 0
72.477295 14.521671 81.10173 0 255 0
60.486206 14.7108 77.334648 0 255 0
2.8373413 7.5136185 45.120861 0 255 0
72.319885 0.24898529 56.204647 0 255 0
11.596375 17.423676 65.357262 0 255 0
2.2490234 10.578812 50.250538 0 255 0
2.2189941 10.458954 50.030781 0 255 0
57.551392 12.128296 71.831741 0 255 0
63.68634 12.364357 74.337471 0 255 0
2.7455444 6.9356995 44.078278 0 255 0
44.84729 15.125614 72.704567 0 255 0
32.595337 16.193172 70.37738 0 255 0
5.40802 17.090393 62.653042 0 255 0
2.0841064 11.274654 51.395454 0 255 0
51.270386 -2.4468613 44.307251 0 255 0
25.710449 17.479763 70.257393 0 255 0
14.075867 19.059708 69.03331 0 255 0
2.6244507 14.700535 57.533886 0 255 0
13.494568 18.907642 68.567444 0 255 0
2.2722168 10.769485 50.57159 0 255 0
71.526611 12.512699 77.254143 0 255 0
68.334717 12.286095 75.768585 0 255 0
21.0802 -1.6938171 35.299389 0 255 0
27.413147 -2.6609802 35.778057 0 255 0
29.728699 -2.9039764 36.145885 0 255 0
10.569763 17.574371 65.242805 0 255 0
68.680603 12.289402 75.889473 0 255 0
6.711731 17.625038 64.011864 0 255 0
11.151306 -0.41552734 34.130367 0 255 0
66.890747 1.9941864 57.358047 0 255 0
48.367554 14.932678 73.54995 0 255 0
55.947083 12.041626 71.105896 0 255 0
21.571411 -1.7749329 35.319767 0 255 0
2.2268677 10.170029 49.502102 0 255 0
9.2033081 0.3119812 34.727245 0 255 0
48.089539 -2.8584442 42.486992 0 255 0
4.800354 16.836178 61.979015 0 255 0
10.024841 17.690044 65.247993 0 255 0
8.0386353 1.1879883 35.849522 0 255 0
26.297424 -2.477005 35.705673 0 255 0
12.15155 -0.50328064 34.309643 0 255 0
68.723816 2.2470779 58.415318 0 255 0
58.322021 12.142048 72.082367 0 255 0
69.95459 12.447731 76.586113 0 255 0
38.555298 -3.6890411 37.777988 0 255 0
23.082825 -1.9238739 35.565533 0 255 0
2.4570312 12.913181 54.340271 0 255 0
6.5371094 2.4751587 37.563854 0 255 0
64.261353 14.742691 78.626427 0 255 0
2.5013428 8.7007294 47.018673 0 255 0
72.352539 1.3121643 58.013821 0 255 0
3.6936035 15.923416 59.994984 0 255 0
61.892029 14.702278 77.742348 0 255 0
64.193481 12.561909 74.801826 0 255 0
57.910645 14.762844 76.484665 0 255 0
19.376648 18.928986 70.574516 0 255 0
9.5460815 0.06048584 34.379074 0 255 0
26.933289 -2.5719299 35.735302 0 255 0
34.9646 15.8181 70.482376 0 255 0
56.656372 14.775002 76.074593 0 255 0
3.4000244 15.497433 59.144733 0 255 0
2.2288208 13.690701 55.599148 0 255 0
36.976318 15.61665 70.814873 0 255 0
2.8064575 6.4262695 43.151073 0 255 0
41.178528 15.220249 71.558067 0 255 0
18.02417 19.145855 70.481293 0 255 0
4.9602051 3.985611 39.633846 0 255 0
71.843811 12.583832 77.438553 0 255 0
14.472412 -0.43228912 35.192097 0 255 0
8.7613525 0.58267212 35.00563 0 255 0
38.155396 15.500454 71.006096 0 255 0
2.2188721 14.247631 56.552643 0 255 0
3.015686 6.0819931 42.613091 0 255 0
20.850281 18.750572 70.750618 0 255 0
66.599304 14.864693 79.60849 0 255 0
43.025696 15.203651 72.147781 0 255 0
43.903625 15.188675 72.421257 0 255 0
45.184387 -3.1132965 41.006336 0 255 0
37.36908 -3.7977295 37.145103 0 255 0
67.01239 12.470688 75.580559 0 255 0
41.981628 15.191765 71.766731 0 255 0
21.06842 18.715244 70.755211 0 255 0
7.4885254 1.6544189 36.425385 0 255 0
21.743225 18.561974 70.718353 0 255 0
22.079285 -1.821907 35.357304 0 255 0
59.242249 12.025528 72.147644 0 255 0
58.704712 -1.3269958 48.723728 0 255 0
3.4736328 15.590572 59.302868 0 255 0
56.633972 -1.6223907 47.499691 0 255 0
3.4671631 5.5372849 41.803226 0 255 0
73.049561 14.228107 80.690697 0 255 0
3.3677368 5.6665115 41.992577 0 255 0
18.829285 19.020821 70.513557 0 255 0
55.599243 11.5994 70.154152 0 255 0
12.450317 18.347481 67.162567 0 255 0
47.854492 14.984356 73.399246 0 255 0
64.788696 -0.68638611 51.908688 0 255 0
7.1127319 1.9862137 36.86359 0 255 0
40.817017 -3.5107956 38.805943 0 255 0
63.072998 12.461445 74.203484 0 255 0
9.6975708 17.753262 65.181435 0 255 0
38.968811 15.46003 71.182968 0 255 0
36.273682 -3.7479248 36.833519 0 255 0
2.2578125 10.962509 50.818043 0 255 0
11.360657 17.439102 65.198082 0 255 0
61.099731 14.750763 77.502411 0 255 0
73.443115 13.723701 79.929764 0 255 0
64.284851 -0.73105621 51.645626 0 255 0
66.331848 14.856941 79.469337 0 255 0
17.561646 19.25943 70.475861 0 255 0
9.984436 -0.16776276 34.077843 0 255 0
4.4534302 16.629852 61.422428 0 255 0
11.765137 17.556442 65.5317 0 255 0
70.242004 0.055778503 55.042896 0 255 0
7.7097778 1.4806366 36.166222 0 255 0
71.94989 0.15491486 55.796227 0 255 0
45.834595 15.12764 72.935455 0 255 0
2.3500366 13.298397 54.899773 0 255 0
72.406067 1.5056152 58.300175 0 255 0
12.082825 17.939194 66.29998 0 255 0
71.125244 2.2010498 59.071621 0 255 0
37.913147 -3.7386169 37.391212 0 255 0
42.71283 -3.3554077 39.692986 0 255 0
9.385437 0.21185303 34.516792 0 255 0
48.721741 -2.7372971 42.813282 0 255 0
22.725281 -1.8655777 35.45026 0 255 0
43.49115 15.217754 72.271889 0 255 0
73.565247 13.226452 79.076462 0 255 0
36.739441 -3.7658768 36.927402 0 255 0
46.921265 -2.9538574 41.816986 0 255 0
3.6865234 5.2091522 41.258137 0 255 0
44.477173 15.194157 72.562607 0 255 0
55.710693 12.044132 70.914909 0 255 0
10.990784 17.524445 65.176765 0 255 0
71.288513 14.843758 81.102722 0 255 0
60.068115 14.766445 77.134743 0 255 0
63.648071 14.791672 78.400208 0 255 0
69.96991 14.85059 80.660667 0 255 0
67.981262 -0.24996185 53.699795 0 255 0
39.536438 15.434799 71.277794 0 255 0
55.814453 10.891006 68.927277 0 255 0
16.577515 19.352573 70.253578 0 255 0
33.094971 -3.3621826 36.360394 0 255 0
3.762146 16.109268 60.229122 0 255 0
37.66449 -3.7486115 37.244808 0 255 0
6.1079712 2.8841705 38.007355 0 255 0
55.79071 -1.7087784 46.977776 0 255 0
61.860596 12.557098 73.8759 0 255 0
62.613281 2.3064575 56.291142 0 255 0
2.1375122 11.701012 51.988476 0 255 0
72.413208 12.712593 77.748177 0 255 0
72.375183 1.8235779 58.781666 0 255 0
15.843872 -0.4039917 35.599079 0 255 0
11.945923 17.841423 66.021286 0 255 0
14.148865 -0.38907623 35.043655 0 255 0
2.3720093 14.54155 57.005634 0 255 0
13.772766 19.156128 68.930016 0 255 0
46.806824 15.097977 73.147171 0 255 0
7.0205078 17.769737 64.209808 0 255 0
16.750916 -0.51435089 35.711365 0 255 0
49.71759 14.981682 73.937759 0 255 0
12.804443 -0.47322083 34.43404 0 255 0
13.64978 -0.41815186 34.815792 0 255 0
9.2913818 17.805946 65.041252 0 255 0
40.1073 -3.5123672 38.461803 0 255 0
2.9245605 8.0500488 45.884838 0 255 0
69.257507 2.3455353 58.609303 0 255 0
13.23877 18.940613 68.358559 0 255 0
72.272217 0.24966431 55.985271 0 255 0
39.647095 -3.5354156 38.256008 0 255 0
69.851501 0.022766113 54.760071 0 255 0
7.9407349 17.816154 64.584023 0 255 0
10.311523 -0.23379517 33.979122 0 255 0
8.8946533 17.797943 64.876907 0 255 0
68.929688 14.892284 80.321571 0 255 0
64.423645 12.71669 74.992142 0 255 0
48.938843 14.998138 73.672295 0 255 0
69.519043 12.492638 76.337547 0 255 0
56.987 2.7516174 55.104427 0 255 0
8.2177734 1.0262604 35.446056 0 255 0
2.2174072 10.396935 49.700832 0 255 0
31.546692 -3.1034241 36.22076 0 255 0
14.065308 19.237576 69.131813 0 255 0
54.341125 -1.9922638 45.938259 0 255 0
56.341736 2.7383118 54.851326 0 255 0
72.933105 14.406864 80.82428 0 255 0
2.2680664 14.423237 56.720379 0 255 0
3.571228 15.790352 59.543926 0 255 0
15.138062 19.218449 69.459831 0 255 0
67.294495 14.937256 79.819557 0 255 0
2.4650269 13.151997 54.572697 0 255 0
62.234375 12.603577 74.02887 0 255 0
10.954651 -0.32511902 34.011879 0 255 0
55.815552 11.340977 69.634598 0 255 0
15.760376 19.255325 69.728767 0 255 0
2.5153198 12.591339 53.606251 0 255 0
64.793579 14.841522 78.789627 0 255 0
68.098145 12.391602 75.6539 0 255 0
64.966125 12.764114 75.231712 0 255 0
2.8607178 6.3374023 42.833351 0 255 0
42.162476 -3.365799 39.367409 0 255 0
2.7354126 6.8032684 43.600777 0 255 0
65.760925 14.885834 79.190468 0 255 0
20.11969 -1.3775558 35.299625 0 255 0
5.1080933 3.7872009 39.15662 0 255 0
63.219788 14.829628 78.219307 0 255 0
17.104492 19.412384 70.444153 0 255 0
7.835144 1.3922806 35.916008 0 255 0
32.053528 16.379391 70.269341 0 255 0
64.233215 2.0819244 56.375507 0 255 0
72.434692 1.1158752 57.49329 0 255 0
16.259949 -0.40975189 35.652252 0 255 0
59.286743 -1.2223587 48.930477 0 255 0
63.670715 -0.73505402 51.271389 0 255 0
61.312195 12.501198 73.49778 0 255 0
17.949341 -0.76886749 35.594212 0 255 0
4.7421265 4.2808456 39.870846 0 255 0
68.67395 -0.10801697 54.064831 0 255 0
16.349915 19.381451 70.112907 0 255 0
54.756714 3.3983154 55.411465 0 255 0
11.838623 17.728497 65.693962 0 255 0
35.521362 15.845795 70.501884 0 255 0
20.387146 18.929752 70.699272 0 255 0
2.2242432 11.210724 51.052341 0 255 0
73.64447 13.388683 79.23159 0 255 0
10.645752 -0.26476288 33.954319 0 255 0
2.1263428 11.634583 51.753849 0 255 0
70.536377 2.3007507 58.870823 0 255 0
42.647583 15.265057 71.908226 0 255 0
35.565613 -3.6024323 36.653164 0 255 0
16.754456 19.452736 70.3433 0 255 0
58.431152 2.8672028 55.710163 0 255 0
73.549561 13.179577 78.819115 0 255 0
57.368896 2.9228058 55.440769 0 255 0
72.15979 14.796276 81.155624 0 255 0
70.798828 0.17193604 55.238964 0 255 0
10.791687 17.681915 65.220032 0 255 0
5.203186 17.182816 62.441921 0 255 0
55.642273 9.7604675 66.748169 0 255 0
73.259094 13.002106 78.405342 0 255 0
68.195312 2.2492676 57.960171 0 255 0
8.824585 0.5874939 34.792797 0 255 0
10.430176 17.787613 65.271873 0 255 0
72.279907 1.9992828 58.911411 0 255 0
58.200806 12.236217 71.914871 0 255 0
31.075378 -2.968689 36.188641 0 255 0
60.911865 -1.0269165 49.755383 0 255 0
32.351929 -3.1708298 36.267887 0 255 0
12.150269 18.179485 66.525566 0 255 0
12.908081 18.855038 67.96003 0 255 0
2.4940796 8.971489 47.201939 0 255 0
2.7524414 6.6594086 43.263611 0 255 0
3.9779053 16.423691 60.674187 0 255 0
2.8276367 8.4165268 46.338627 0 255 0
2.9083252 8.2620239 46.097225 0 255 0
55.855774 11.124771 69.15097 0 255 0
62.759766 14.858234 78.004951 0 255 0
9.6845703 0.046951294 34.102398 0 255 0
72.460022 1.2963943 57.713207 0 255 0
8.3884277 0.87722015 35.10231 0 255 0
12.628357 -0.40893555 34.310658 0 255 0
24.291077 18.092453 70.488853 0 255 0
60.72052 12.310532 72.866615 0 255 0
53.624512 -1.9904785 45.552113 0 255 0
54.758179 3.163208 54.908443 0 255 0
59.119812 14.841614 76.722191 0 255 0
13.388611 19.200523 68.690933 0 255 0
17.995972 19.372345 70.55899 0 255 0
62.656128 12.607826 74.037132 0 255 0
29.88092 -2.7390137 36.132206 0 255 0
52.939331 -2.0598755 45.188183 0 255 0
68.959595 12.447865 75.903618 0 255 0
29.355469 16.912003 70.147018 0 255 0
39.479309 15.522472 71.183937 0 255 0
41.258179 -3.375885 38.899498 0 255 0
2.833374 15.140892 58.002499 0 255 0
63.168762 -0.73454285 50.975384 0 255 0
73.485474 13.128704 78.624641 0 255 0
60.362671 12.084278 72.325066 0 255 0
55.645752 2.8640442 54.665478 0 255 0
2.6952515 14.989796 57.681133 0 255 0
55.169434 2.9191132 54.586052 0 255 0
46.339478 15.223263 72.983742 0 255 0
12.615906 18.715672 67.540749 0 255 0
12.278687 18.409172 66.892105 0 255 0
69.298828 12.517506 76.109406 0 255 0
7.3955688 17.929279 64.383514 0 255 0
14.741882 19.350925 69.366302 0 255 0
57.172058 2.9085846 55.237965 0 255 0
54.951965 2.9769821 54.597454 0 255 0
5.1331787 3.7847595 38.988621 0 255 0
47.785522 15.130924 73.299507 0 255 0
11.04187 -0.26254272 33.959068 0 255 0
19.938782 19.070606 70.643471 0 255 0
41.485107 15.32457 71.479759 0 255 0
55.569458 12.015793 70.530045 0 255 0
65.753113 2.0068588 56.587711 0 255 0
55.639526 12.108795 70.714607 0 255 0
5.6286621 17.389332 62.825626 0 255 0
56.927368 12.23391 71.371544 0 255 0
3.7818604 5.1483994 40.890373 0 255 0
6.9251099 2.2500458 36.917919 0 255 0
2.5712891 12.22084 52.783131 0 255 0
14.257446 19.411724 69.288582 0 255 0
2.2404175 14.156773 56.038971 0 255 0
18.887878 19.237206 70.565521 0 255 0
72.514038 1.7944336 58.521996 0 255 0
17.471985 19.514626 70.561256 0 255 0
64.797729 2.0572662 56.34074 0 255 0
17.027832 -0.45820618 35.649185 0 255 0
23.951843 18.235638 70.53878 0 255 0
26.140747 17.605709 70.188431 0 255 0
45.250244 15.293777 72.690079 0 255 0
11.009277 17.69091 65.167946 0 255 0
55.504944 8.7081604 64.726265 0 255 0
58.553772 -1.2486572 48.435349 0 255 0
26.953186 17.451611 70.188316 0 255 0
58.826294 12.216827 71.958855 0 255 0
73.663696 13.612041 79.451263 0 255 0
2.9039917 6.3160172 42.588917 0 255 0
13.791443 19.447128 69.157021 0 255 0
72.744324 12.873581 77.847389 0 255 0
28.916809 17.065048 70.170425 0 255 0
15.366821 19.338966 69.499786 0 255 0
67.404907 2.195961 57.425755 0 255 0
58.468811 12.264465 71.896919 0 255 0
65.384583 14.967503 78.96051 0 255 0
2.3374023 10.206802 49.143871 0 255 0
50.80719 -2.3746185 43.799843 0 255 0
16.046204 19.439522 69.891747 0 255 0
6.359436 17.790009 63.712337 0 255 0
71.332092 12.565895 76.806526 0 255 0
3.8250732 16.384968 60.398491 0 255 0
9.0565186 0.50174713 34.537952 0 255 0
34.22699 -3.3666229 36.400806 0 255 0
72.070557 2.1779938 58.972675 0 255 0
61.738403 12.630978 73.630219 0 255 0
62.345337 -0.80610657 50.451733 0 255 0
4.3275757 4.7015839 40.222881 0 255 0
7.3945923 1.8566971 36.317238 0 255 0
2.5374146 9.1969757 47.432705 0 255 0
13.454224 19.415359 68.943115 0 255 0
2.555603 12.089962 52.470707 0 255 0
67.606384 -0.22646332 53.246101 0 255 0
2.6455078 9.8186417 48.543793 0 255 0
28.490967 17.180462 70.182228 0 255 0
7.8652344 1.38974 35.654041 0 255 0
60.085571 12.110626 72.142815 0 255 0
27.809143 -2.4803925 35.724953 0 255 0
66.75116 15.050262 79.526848 0 255 0
2.3061523 14.029312 55.738419 0 255 0
57.892029 12.274696 71.666893 0 255 0
11.714111 17.643066 65.238762 0 255 0
2.9216309 15.291233 58.141346 0 255 0
25.607971 17.773357 70.203545 0 255 0
69.237122 2.4740448 58.474445 0 255 0
26.765869 -2.3282928 35.611946 0 255 0
12.97406 19.086399 68.171333 0 255 0
10.019409 18.009918 65.288445 0 255 0
44.582031 -2.973587 40.572147 0 255 0
57.645691 3.054039 55.522736 0 255 0
25.855652 -2.1708527 35.572201 0 255 0
57.469971 14.949535 76.163475 0 255 0
18.860168 -0.89955139 35.39333 0 255 0
68.395935 -0.060806274 53.767574 0 255 0
61.147034 12.481209 73.119118 0 255 0
72.55896 14.796455 81.045525 0 255 0
34.924072 -3.4245605 36.479626 0 255 0
66.898987 2.1554871 57.110012 0 255 0
28.016541 17.296581 70.180107 0 255 0
37.266663 15.783096 70.702095 0 255 0
72.701843 0.79948425 56.725361 0 255 0
57.428833 12.282459 71.492836 0 255 0
6.2867432 2.8475952 37.604458 0 255 0
19.442017 19.224369 70.594467 0 255 0
3.4405518 5.6960831 41.575275 0 255 0
2.3914185 13.814476 55.344421 0 255 0
49.917053 -2.4579315 43.253407 0 255 0
8.4438477 0.88064575 34.900356 0 255 0
69.592163 2.4806442 58.566628 0 255 0
64.669739 12.906277 75.029694 0 255 0
33.003967 16.393326 70.281441 0 255 0
2.5695801 9.9865265 48.736782 0 255 0
15.540955 19.409012 69.564453 0 255 0
2.2570801 14.346935 56.217899 0 255 0
11.410217 17.610603 65.022285 0 255 0
58.196167 -1.2747955 48.129898 0 255 0
71.530762 12.645695 76.909843 0 255 0
2.6195679 12.599232 53.294735 0 255 0
33.972778 16.227978 70.315002 0 255 0
21.334412 18.9356 70.705215 0 255 0
6.9856567 18.008003 64.188309 0 255 0
37.107849 -3.579277 36.904804 0 255 0
66.531311 2.1372223 56.900059 0 255 0
72.570496 0.50901031 56.125858 0 255 0
54.769043 -1.8337402 45.965874 0 255 0
71.129028 12.558891 76.6007 0 255 0
13.974243 19.591492 69.319695 0 255 0
60.594299 12.270493 72.499153 0 255 0
12.8302 -0.30793762 34.292538 0 255 0
59.725769 12.177757 72.036446 0 255 0
16.545227 19.620491 70.241791 0 255 0
69.638794 12.576454 76.113251 0 255 0
25.170898 17.946693 70.272041 0 255 0
2.3015747 10.87812 50.158314 0 255 0
12.000244 18.239357 66.280952 0 255 0
68.733582 12.511131 75.686043 0 255 0
23.064819 -1.6997452 35.357845 0 255 0
9.864563 0.06022644 33.912716 0 255 0
11.604431 17.615654 65.058723 0 255 0
3.0762329 6.1725006 42.230545 0 255 0
17.740173 19.640083 70.676437 0 255 0
53.32489 15.138733 74.994225 0 255 0
8.4541626 18.040478 64.718674 0 255 0
13.890503 -0.20887756 34.813522 0 255 0
55.655579 -1.6160583 46.626781 0 255 0
6.5048218 17.93203 63.856678 0 255 0
62.999329 2.4879761 56.268417 0 255 0
59.317871 12.219257 71.944801 0 255 0
6.7469482 17.990746 64.036217 0 255 0
2.3287964 11.828041 51.800694 0 255 0
22.071655 -1.5954132 35.179695 0 255 0
2.3210449 11.044159 50.430622 0 255 0
13.46936 19.58873 69.10762 0 255 0
16.687073 -0.29751587 35.596272 0 255 0
16.836792 19.678959 70.412857 0 255 0
60.277161 -1.0317688 49.201931 0 255 0
4.2215576 16.739967 60.988022 0 255 0
2.4916382 11.980938 52.114063 0 255 0
18.198486 19.567043 70.680428 0 255 0
72.397339 12.880413 77.551964 0 255 0
37.96991 15.731239 70.755089 0 255 0
11.249023 17.711876 65.072449 0 255 0
25.891907 17.770481 70.170525 0 255 0
63.445801 12.607361 74.0093 0 255 0
11.745911 17.954685 65.659744 0 255 0
47.958008 -2.681572 42.108387 0 255 0
44.864258 15.389202 72.501442 0 255 0
71.634399 2.3516235 58.952843 0 255 0
4.9293213 17.261097 62.12038 0 255 0
54.89624 3.1658401 54.652962 0 255 0
2.2657471 14.522449 56.443863 0 255 0
17.406799 -0.4538269 35.550282 0 255 0
22.526978 -1.638092 35.23708 0 255 0
55.82135 12.227928 70.738533 0 255 0
72.714478 0.67035675 56.392979 0 255 0
5.2650146 3.7158356 38.658558 0 255 0
14.59967 -0.13465118 35.14399 0 255 0
68.860046 15.105373 80.193077 0 255 0
54.778992 3.4190216 55.043415 0 255 0
62.198669 14.975521 77.688141 0 255 0
17.167908 19.723652 70.572708 0 255 0
23.692017 18.416183 70.525154 0 255 0
71.774109 12.757587 77.097107 0 255 0
43.42218 -3.0799942 39.851475 0 255 0
46.480225 -2.7987061 41.38493 0 255 0
10.483704 18.02626 65.33403 0 255 0
6.6212769 2.6022339 37.169174 0 255 0
38.440552 15.698269 70.824455 0 255 0
5.9249878 3.1741791 37.923695 0 255 0
15.146973 19.478004 69.447075 0 255 0
37.414856 -3.5411835 36.989429 0 255 0
5.831543 17.620342 63.031544 0 255 0
49.10968 15.190418 73.579887 0 255 0
10.99353 17.886448 65.253822 0 255 0
11.731079 17.800587 65.354736 0 255 0
9.1973877 0.47138214 34.330112 0 255 0
12.166626 -0.23771667 34.109142 0 255 0
14.458496 19.587048 69.393799 0 255 0
36.573242 15.927502 70.576988 0 255 0
3.614624 16.110085 59.638077 0 255 0
65.507324 2.0881729 56.370731 0 255 0
15.390503 19.459583 69.487679 0 255 0
47.531006 15.268066 73.161972 0 255 0
18.681946 19.491837 70.660408 0 255 0
45.918457 -2.8508224 41.075134 0 255 0
2.2935181 14.667168 56.663597 0 255 0
53.849854 15.145531 75.102531 0 255 0
50.154114 15.190834 73.918381 0 255 0
55.048035 -1.7562256 46.094334 0 255 0
2.8085938 6.5667572 42.739101 0 255 0
3.0528564 15.459568 58.297714 0 255 0
2.652771 8.8446884 46.645 0 255 0
31.698853 16.653214 70.150841 0 255 0
56.905823 15.021255 75.91761 0 255 0
38.532166 -3.4216537 37.54155 0 255 0
24.734375 18.149925 70.371765 0 255 0
72.171387 0.38878632 55.660023 0 255 0
35.530212 16.040833 70.386223 0 255 0
2.2714844 11.517712 51.156353 0 255 0
11.699097 -0.19087219 33.997498 0 255 0
15.149048 -0.095619202 35.340229 0 255 0
4.8539429 4.2499619 39.387028 0 255 0
2.3217163 11.233284 50.673058 0 255 0
39.160583 -3.3547516 37.864197 0 255 0
57.607117 -1.3369904 47.674774 0 255 0
14.245117 -0.1295166 34.966305 0 255 0
66.781067 -0.30456543 52.599613 0 255 0
46.085083 15.371323 72.812881 0 255 0
13.194458 -0.23958588 34.410366 0 255 0
64.458557 12.927063 74.831566 0 255 0
19.212769 19.395935 70.635506 0 255 0
13.041565 19.355518 68.457077 0 255 0
7.6394653 18.123596 64.463776 0 255 0
7.7205811 1.6004715 35.733242 0 255 0
72.455566 0.47264099 55.877419 0 255 0
4.5935059 4.530777 39.760555 0 255 0
9.4378052 0.3352356 34.11298 0 255 0
73.04657 13.016281 77.904861 0 255 0
46.973877 15.327377 73.021507 0 255 0
19.737 19.306709 70.645546 0 255 0
8.0779419 1.2123108 35.172703 0 255 0
12.47699 18.884605 67.430092 0 255 0
5.1052856 3.8863678 38.809238 0 255 0
23.592224 -1.6858826 35.424194 0 255 0
36.210449 15.990807 70.4972 0 255 0
2.2843628 11.704975 51.452477 0 255 0
44.148254 15.436718 72.243073 0 255 0
32.142578 -2.9237366 36.189198 0 255 0
3.7004395 5.3286667 40.836178 0 255 0
56.671082 2.9827576 54.842731 0 255 0
73.804504 13.404972 78.832207 0 255 0
2.6103516 9.4534149 47.641987 0 255 0
58.818604 12.278404 71.752724 0 255 0
65.769165 -0.39480591 52.070316 0 255 0
3.536377 15.923069 59.212894 0 255 0
32.425659 16.571957 70.207497 0 255 0
10.234985 0.012031555 33.807789 0 255 0
13.958984 19.720169 69.378304 0 255 0
13.26239 19.616898 68.960213 0 255 0
45.18335 -2.8798294 40.708462 0 255 0
9.3585815 18.177605 65.121246 0 255 0
59.183777 12.238708 71.800255 0 255 0
62.440002 12.733807 73.773849 0 255 0
11.783508 18.162815 65.922852 0 255 0
55.39624 -1.6455536 46.340828 0 255 0
55.108215 3.118988 54.533787 0 255 0
61.089722 15.042747 77.327324 0 255 0
7.5570679 1.798172 35.993404 0 255 0
73.612732 13.962639 79.721336 0 255 0
8.6362915 0.81277466 34.640858 0 255 0
20.344788 19.219711 70.673393 0 255 0
2.6968384 13.112957 54.017185 0 255 0
67.272095 -0.21813202 52.868313 0 255 0
71.947205 0.37634277 55.499271 0 255 0
2.7116699 12.407867 52.793087 0 255 0
71.141663 2.4569092 58.843033 0 255 0
48.489929 15.24823 73.368713 0 255 0
3.6636963 16.308937 59.906124 0 255 0
71.692749 0.37026978 55.396194 0 255 0
30.184387 16.945328 70.065903 0 255 0
42.559143 15.432068 71.657883 0 255 0
4.7320557 17.196404 61.809742 0 255 0
13.658875 19.74192 69.288078 0 255 0
71.368225 15.114521 80.942146 0 255 0
70.944092 12.589222 76.401237 0 255 0
16.295898 19.659538 70.043709 0 255 0
49.719299 15.225372 73.73848 0 255 0
43.489868 15.457329 72.014313 0 255 0
36.292786 -3.4405518 36.663494 0 255 0
21.64679 -1.4610825 35.103954 0 255 0
21.123962 -1.3607254 35.095089 0 255 0
67.625732 15.176453 79.754646 0 255 0
50.589844 15.241203 74.049049 0 255 0
64.02832 12.718124 74.246727 0 255 0
2.4395142 14.957474 57.110886 0 255 0
18.014709 19.780289 70.822556 0 255 0
70.409058 12.579048 76.181854 0 255 0
34.990845 16.158463 70.314537 0 255 0
29.516724 -2.4667969 36.0298 0 255 0
52.27478 15.266232 74.658943 0 255 0
2.5731812 13.625851 54.830818 0 255 0
7.0964966 2.2405701 36.559147 0 255 0
40.9198 15.532719 71.242729 0 255 0
9.6764526 0.2188797 33.919968 0 255 0
55.694824 12.22308 70.525818 0 255 0
31.179199 16.782795 70.088203 0 255 0
5.6013794 3.4699249 38.180737 0 255 0
41.932983 -3.1573257 39.051861 0 255 0
14.732849 19.633953 69.426964 0 255 0
13.707092 -0.14399719 34.65247 0 255 0
7.8042603 1.5025635 35.499355 0 255 0
2.3395386 14.831856 56.829742 0 255 0
72.866577 14.823982 80.900375 0 255 0
11.577393 17.674881 64.930054 0 255 0
73.341125 14.421391 80.359688 0 255 0
73.141418 14.641464 80.67305 0 255 0
16.306213 -0.13968658 35.539116 0 255 0
62.011902 -0.73725128 50.106339 0 255 0
30.689636 16.874886 70.060127 0 255 0
73.268677 13.099804 78.028732 0 255 0
65.983093 15.137032 79.085884 0 255 0
52.190613 -2.0169678 44.520432 0 255 0
73.712769 13.890583 79.552345 0 255 0
18.235718 -0.59840393 35.389938 0 255 0
65.329407 -0.39440918 51.827175 0 255 0
3.7265015 16.470219 60.139019 0 255 0
18.489685 19.695866 70.794327 0 255 0
12.740417 19.173462 67.920753 0 255 0
28.019653 -2.3355103 35.705093 0 255 0
73.893188 13.600666 79.104393 0 255 0
8.8347168 0.7202301 34.468891 0 255 0
31.456482 -2.7553406 36.143658 0 255 0
66.241516 -0.31830597 52.263714 0 255 0
8.2277222 1.0955353 34.910294 0 255 0
70.328491 15.15802 80.589607 0 255 0
2.3244629 11.415802 50.851414 0 255 0
57.852051 12.360062 71.457359 0 255 0
55.783081 10.756111 67.956345 0 255 0
6.0767212 17.870003 63.361355 0 255 0
15.827942 -0.060958862 35.48431 0 255 0
63.539368 15.100342 78.162483 0 255 0
2.8880615 8.6468048 46.217525 0 255 0
55.909973 11.501053 69.291428 0 255 0
60.853088 12.436398 72.604134 0 255 0
30.586609 -2.5860748 36.119915 0 255 0
17.492615 19.900536 70.782425 0 255 0
59.164856 12.229465 71.66082 0 255 0
27.206482 -2.2293854 35.579655 0 255 0
15.411377 -0.013175964 35.407833 0 255 0
11.494263 17.959591 65.348694 0 255 0
55.446716 3.1259003 54.541058 0 255 0
3.2075806 15.62775 58.45731 0 255 0
67.975098 2.4120178 57.569374 0 255 0
42.018616 15.477848 71.439072 0 255 0
18.924133 19.608768 70.74057 0 255 0
63.140991 12.706718 73.826431 0 255 0
56.066589 -1.4712372 46.734818 0 255 0
56.157166 12.373943 70.859222 0 255 0
12.239624 18.784245 67.017143 0 255 0
40.281372 -3.2259598 38.286259 0 255 0
13.311462 19.786942 69.125877 0 255 0
9.7213745 18.278233 65.273094 0 255 0
43.214111 -3.0368958 39.613235 0 255 0
42.705566 -3.0799255 39.363972 0 255 0
68.369263 15.218227 79.96891 0 255 0
22.256897 18.875412 70.586288 0 255 0
11.524963 17.735558 64.937317 0 255 0
59.324219 12.199009 71.624008 0 255 0
35.088013 -3.2659454 36.431683 0 255 0
10.797729 18.169373 65.438644 0 255 0
11.204346 18.103661 65.46122 0 255 0
45.624023 -2.8045197 40.823147 0 255 0
62.927551 12.745007 73.793198 0 255 0
15.717651 19.634708 69.661339 0 255 0
11.514648 18.152622 65.646248 0 255 0
2.7636719 12.293659 52.453064 0 255 0
34.126465 -3.1350174 36.31081 0 255 0
11.691711 17.777008 65.042351 0 255 0
18.338196 19.868271 70.949104 0 255 0
63.457092 2.5596161 56.23103 0 255 0
16.8927 19.895332 70.499214 0 255 0
2.6077881 15.219326 57.482899 0 255 0
5.013855 17.454048 62.189106 0 255 0
72.032227 12.942566 77.216347 0 255 0
55.679504 12.116814 70.194481 0 255 0
11.639587 17.731842 64.923157 0 255 0
10.280273 18.274746 65.403732 0 255 0
56.37262 -1.4243469 46.860569 0 255 0
56.357544 12.414291 70.937653 0 255 0
17.964722 19.996513 71.02227 0 255 0
64.179382 -0.46313477 51.190624 0 255 0
11.47583 17.844994 65.05497 0 255 0
69.575134 12.666443 75.883369 0 255 0
2.7281494 13.3918 54.31535 0 255 0
64.458252 15.149689 78.454567 0 255 0
21.736816 19.049419 70.647995 0 255 0
2.586853 9.1326447 46.849312 0 255 0
3.8464966 16.655293 60.370373 0 255 0
8.602356 18.253647 64.775848 0 255 0
46.577209 15.446163 72.856064 0 255 0
45.484619 15.50069 72.577385 0 255 0
56.970581 3.1220093 54.95639 0 255 0
4.4095459 17.040657 61.230148 0 255 0
2.7164307 12.170807 52.1731 0 255 0
72.736145 1.8677902 58.146923 0 255 0
69.161682 12.662529 75.712395 0 255 0
11.63739 17.868519 65.121101 0 255 0
2.6834717 9.7237854 47.887894 0 255 0
57.995972 15.125313 76.174118 0 255 0
2.4796753 14.155556 55.517841 0 255 0
2.3869629 14.376915 55.869694 0 255 0
60.438782 12.354885 72.169685 0 255 0
2.7756348 15.408997 57.791321 0 255 0
61.181641 12.543728 72.748413 0 255 0
69.435608 0.26159668 54.189579 0 255 0
64.406616 12.996323 74.632362 0 255 0
2.7818604 8.88591 46.433685 0 255 0
59.259094 12.237785 71.55394 0 255 0
2.7113037 9.8908844 48.15757 0 255 0
19.388977 19.590324 70.727631 0 255 0
59.52948 12.290821 71.725159 0 255 0
38.170471 -3.3313599 37.242279 0 255 0
13.388794 19.93428 69.268929 0 255 0
26.634766 17.821339 70.114609 0 255 0
14.001099 19.903996 69.422874 0 255 0
2.5654907 13.987625 55.220161 0 255 0
11.79425 18.442184 66.123444 0 255 0
72.407593 2.3298035 58.779949 0 255 0
28.907227 -2.2950134 35.87392 0 255 0
59.406677 12.232269 71.569038 0 255 0
2.7841187 13.049244 53.65226 0 255 0
37.722778 -3.3641891 37.017715 0 255 0
6.6516113 18.211636 63.954113 0 255 0
67.00116 2.3168488 56.900368 0 255 0
55.698669 12.235752 70.30069 0 255 0
17.078491 20.016094 70.651825 0 255 0
12.823303 19.452568 68.217339 0 255 0
72.719482 2.0878983 58.448254 0 255 0
51.393311 15.381432 74.300652 0 255 0
11.626587 17.805206 64.934349 0 255 0
7.4154663 2.0495758 36.073803 0 255 0
66.264954 12.986412 75.203697 0 255 0
18.880371 19.818119 70.903587 0 255 0
18.449036 20.048283 71.156715 0 255 0
2.7979736 12.770485 53.145306 0 255 0
11.552063 18.354454 65.851936 0 255 0
60.411865 15.169144 76.990288 0 255 0
35.629333 -3.2375336 36.487213 0 255 0
14.516907 0.059463501 35.014538 0 255 0
11.639893 17.847416 64.989075 0 255 0
70.408203 12.64315 75.998116 0 255 0
3.3567505 15.814632 58.619095 0 255 0
11.169189 18.317043 65.636734 0 255 0
18.009949 20.217613 71.280472 0 255 0
7.7888184 18.335602 64.51226 0 255 0
19.901123 19.50568 70.68264 0 255 0
16.332947 19.845459 70.053703 0 255 0
