ply
format ascii 1.0
comment PCL generated
element vertex 1584
property float x
property float y
property float z
element camera 0
property float view_px
property float view_py
property float view_pz
property float x_axisx
property float x_axisy
property float x_axisz
property float y_axisx
property float y_axisy
property float y_axisz
property float z_axisx
property float z_axisy
property float z_axisz
property float focal
property float scalex
property float scaley
property float centerx
property float centery
property int viewportx
property int viewporty
property float k1
property float k2
end_header
-30.475 41.17625 72.344376
-30.48 41.293125 72.309998
-30.4825 41.405624 72.283752
-30.475 41.520626 72.248749
-30.470625 41.634998 72.197502
-30.471874 41.746876 72.158752
-30.467501 41.86375 72.124374
-30.461876 41.97625 72.086876
-30.4625 42.091251 72.041252
-30.460625 42.200001 71.964996
-30.450001 42.311249 71.883125
-30.445 42.423126 71.836876
-30.443125 42.531876 71.754372
-30.435625 42.643124 71.677498
-30.424999 42.75375 71.610001
-30.418751 42.861874 71.512497
-30.422501 42.974998 71.451874
-30.42 43.08625 71.412498
-30.418125 43.198124 71.360626
-30.410625 43.306873 71.265625
-30.400625 43.416248 71.175629
-30.394375 43.525623 71.103752
-30.393749 43.636875 71.02375
-30.390625 43.745625 70.948753
-30.380625 43.855625 70.883751
-30.38125 43.966251 70.823128
-30.379999 44.079376 70.758751
-30.369375 44.1875 70.673126
-30.360624 44.294376 70.569374
-30.35375 44.400623 70.452499
-30.345625 44.506874 70.339378
-30.338125 44.616249 70.270622
-30.330626 44.729374 70.226875
-30.326876 44.836876 70.138123
-30.319374 44.944374 70.040627
-30.305626 45.054375 69.963127
-30.299999 45.160625 69.855003
-30.299999 45.265625 69.733749
-30.290625 45.370625 69.605621
-30.274376 45.475624 69.488747
-30.260626 45.581875 69.394997
-30.245625 45.693748 69.318123
-30.230625 45.797501 69.196877
-30.227501 45.89875 69.058746
-30.221251 46.009377 68.989372
-30.209375 46.1175 68.915627
-30.195 46.226875 68.847504
-30.190624 46.340626 68.786873
-30.1875 46.450001 68.718124
-30.190624 46.560623 68.666878
-30.19375 46.671875 68.636253
-30.198126 46.790001 68.6325
-30.2075 46.905624 68.628754
-30.21125 47.02 68.6175
-30.21875 47.133751 68.571877
-30.2225 47.246876 68.545624
-30.231874 47.364376 68.564377
-30.248751 47.485001 68.594376
-30.26125 47.604374 68.625
-30.27125 47.721249 68.647499
-30.278749 47.842499 68.674377
-30.29875 47.970001 68.781876
-30.309376 48.099377 68.919998
-28.799999 18.418751 48.28125
-28.80875 18.535625 48.433125
-28.815624 18.653126 48.554375
-28.828125 18.77 48.688751
-28.83625 18.885626 48.802502
-28.8375 19.003124 48.887501
-28.840626 19.116875 48.96125
-28.848749 19.235001 49.071877
-28.860624 19.35125 49.212502
-28.865 19.470625 49.346249
-28.870625 19.588125 49.471249
-28.871876 19.701876 49.541248
-28.875 19.819374 49.603748
-28.876249 19.934376 49.678749
-28.881874 20.049999 49.747501
-28.899376 20.165625 49.855625
-28.916876 20.284374 49.965626
-28.924376 20.400625 50.084373
-28.934999 20.519375 50.236252
-28.958124 20.639376 50.383751
-28.986876 20.758751 50.536877
-28.996876 20.87875 50.665627
-28.996876 20.994375 50.755001
-28.991249 21.109375 50.814377
-28.984375 21.223749 50.846874
-28.977501 21.33625 50.881248
-28.98 21.454374 50.9575
-28.979376 21.570625 51.058125
-28.978125 21.688749 51.147499
-28.985001 21.805626 51.27375
-28.990625 21.924376 51.396252
-28.991875 22.0425 51.493126
-29.001875 22.155624 51.525002
-29.014999 22.27 51.581249
-29.0275 22.38625 51.666248
-29.043125 22.505625 51.78125
-29.05625 22.624374 51.908127
-29.061874 22.74375 52.022499
-29.061251 22.860001 52.108749
-29.055 22.975624 52.1675
-29.051874 23.09 52.203751
-29.0525 23.205626 52.244999
-29.055626 23.3225 52.327499
-29.054375 23.436251 52.378124
-29.053125 23.553749 52.4575
-29.04875 23.67 52.526249
-29.057501 23.786249 52.608124
-29.07 23.904375 52.6875
-29.070625 24.02 52.748749
-29.076876 24.138124 52.820625
-29.0825 24.254999 52.901875
-29.083124 24.374374 53.024376
-30.305 28.975 72.351875
-30.298124 29.090626 72.348122
-30.297501 29.209999 72.355621
-30.293751 29.32625 72.366875
-30.293751 29.444374 72.366875
-30.295626 29.561251 72.355621
-30.296875 29.679375 72.355621
-30.305 29.799376 72.415001
-30.305626 29.919374 72.430626
-30.305626 30.035625 72.430626
-30.304375 30.153126 72.426872
-30.303749 30.27 72.426872
-30.300625 30.385626 72.408127
-30.29875 30.504375 72.400627
-30.299376 30.620625 72.396873
-30.299376 30.73875 72.392502
-30.303749 30.855625 72.386871
-30.31625 30.975 72.423126
-30.317499 31.091249 72.427498
-30.313126 31.20875 72.400002
-30.311874 31.324375 72.370628
-30.30625 31.440001 72.347504
-30.303749 31.555626 72.33625
-30.303125 31.674376 72.332497
-30.299376 31.78875 72.306252
-30.29125 31.905001 72.283752
-30.289375 32.02 72.276253
-30.283125 32.135624 72.245628
-30.27125 32.25 72.205002
-30.28125 32.369373 72.237503
-30.284374 32.486252 72.249374
-30.285625 32.605 72.249374
-30.293125 32.721874 72.2575
-30.300625 32.84375 72.283752
-30.299376 32.961876 72.317497
-30.301874 33.083752 72.366875
-30.30875 33.201248 72.404373
-30.306875 33.323124 72.427498
-30.305626 33.440624 72.434998
-30.30875 33.559376 72.442497
-30.321251 33.675625 72.472504
-30.328751 33.794376 72.491249
-30.33 33.910625 72.480003
-30.32375 34.028126 72.457497
-30.320625 34.145626 72.442497
-30.321251 34.263748 72.453751
-30.317499 34.380001 72.434998
-30.309999 34.494999 72.408127
-30.307501 34.61375 72.423752
-30.305626 34.73 72.430626
-30.3025 34.849377 72.453751
-30.305626 34.965626 72.457497
-30.303749 35.083752 72.446251
-30.295626 35.196877 72.415627
-30.3025 35.318127 72.449371
-30.305626 35.435001 72.449371
-30.305 35.552502 72.438126
-30.3025 35.669998 72.430626
-30.300625 35.78875 72.434372
-30.300625 35.904999 72.434998
-30.30125 36.02 72.423126
-30.300625 36.138748 72.426872
-30.297501 36.2575 72.445625
-30.299999 36.372501 72.438751
-30.305626 36.493126 72.453125
-30.306875 36.610626 72.469376
-30.309376 36.731876 72.501877
-30.311251 36.849377 72.513748
-30.309376 36.968124 72.540627
-30.309376 37.085625 72.552498
-30.309376 37.205002 72.548752
-30.310625 37.325001 72.60125
-30.30875 37.446251 72.623749
-30.309999 37.560623 72.616249
-30.308125 37.679375 72.612503
-30.305626 37.796249 72.601875
-30.30625 37.915001 72.598122
-30.311874 38.03125 72.601875
-30.313126 38.14875 72.625
-30.314375 38.270626 72.659378
-30.314375 38.389999 72.68
-30.315001 38.509998 72.691872
-30.318125 38.629375 72.733749
-30.321875 38.751877 72.781876
-30.323126 38.869373 72.801872
-30.328125 38.988125 72.801872
-30.329374 39.104374 72.797501
-30.328751 39.2225 72.797501
-30.325624 39.33625 72.776253
-30.325001 39.450626 72.72625
-30.32625 39.56625 72.71875
-30.330626 39.685623 72.723122
-30.333124 39.800625 72.699997
-30.333124 39.9175 72.707497
-30.329374 40.036251 72.745628
-30.33 40.155624 72.745628
-30.331875 40.270626 72.71875
-30.32625 40.38625 72.695625
-30.32625 40.502499 72.695625
-30.331249 40.623123 72.706879
-30.333124 40.736874 72.688126
-30.329374 40.855 72.666878
-30.319374 40.970627 72.658127
-30.3125 41.084999 72.628128
-30.315001 41.196877 72.589996
-30.319374 41.314377 72.563751
-30.321875 41.427502 72.536873
-30.315001 41.544998 72.508125
-30.30875 41.659374 72.464996
-30.310625 41.771252 72.434998
-30.307501 41.888126 72.396248
-30.30625 42 72.359375
-30.311874 42.115002 72.313751
-30.308125 42.225624 72.264374
-30.295 42.338123 72.185623
-30.288124 42.450001 72.143127
-30.2875 42.559376 72.056877
-30.278749 42.670624 71.981247
-30.275 42.784374 71.949997
-30.274376 42.894375 71.871246
-30.2775 43.0075 71.806252
-30.264999 43.115623 71.738747
-30.254999 43.226875 71.667503
-30.24375 43.338749 71.595001
-30.24 43.449375 71.529999
-30.23875 43.560001 71.481873
-30.233749 43.672501 71.397499
-30.23 43.779999 71.306877
-30.220625 43.888748 71.217499
-30.217501 43.99625 71.133125
-30.216249 44.109375 71.065628
-30.20875 44.21875 70.9925
-30.203751 44.325001 70.883751
-30.196251 44.430626 70.763123
-30.188749 44.536251 70.646248
-30.181875 44.646252 70.581879
-30.17375 44.759377 70.531876
-30.168125 44.864376 70.415001
-30.161875 44.970627 70.301247
-30.147499 45.080624 70.226875
-30.141251 45.1875 70.123123
-30.140625 45.290627 69.988129
-30.134375 45.396252 69.870003
-30.121876 45.503124 69.760628
-30.112499 45.607498 69.651253
-30.099375 45.717499 69.567497
-30.081875 45.820625 69.447502
-30.075001 45.921249 69.296249
-30.068125 46.029999 69.191872
-30.05625 46.13625 69.096252
-30.040625 46.244373 69.016876
-30.034374 46.357498 68.952499
-30.026875 46.465626 68.875
-30.029375 46.574375 68.813751
-30.030001 46.682499 68.756874
-30.029375 46.799374 68.738129
-30.034374 46.914375 68.719376
-30.035625 47.028751 68.707497
-30.04125 47.141251 68.65625
-30.046249 47.254375 68.625626
-30.055626 47.370625 68.629372
-30.0725 47.490623 68.65625
-30.081875 47.608749 68.676872
-30.09375 47.728127 68.704376
-30.10375 47.848125 68.715622
-30.115 47.966251 68.7425
-30.125 48.088123 68.824997
-28.639999 18.530001 48.345001
-28.643126 18.646875 48.451248
-28.653749 18.764376 48.580002
-28.661249 18.880625 48.696251
-28.6675 18.999374 48.802502
-28.670626 19.115 48.895
-28.679375 19.233749 49.009377
-28.6975 19.35 49.146252
-28.704374 19.46875 49.279373
-28.709375 19.584999 49.393749
-28.705 19.699375 49.463749
-28.700624 19.815624 49.519375
-28.701876 19.93 49.577499
-28.706249 20.045 49.648125
-28.7225 20.161249 49.766876
-28.740625 20.280001 49.866249
-28.748751 20.39625 49.986874
-28.758125 20.514376 50.148125
-28.783125 20.635 50.298752
-28.811874 20.754375 50.439999
-28.825001 20.873751 50.565624
-28.8225 20.98875 50.651875
-28.8125 21.10375 50.710625
-28.8025 21.21875 50.739376
-28.799376 21.331249 50.780624
-28.807501 21.449375 50.864376
-28.80875 21.565624 50.981876
-28.805 21.684999 51.068748
-28.815624 21.803749 51.2225
-28.828125 21.921249 51.362499
-28.83 22.039375 51.470627
-28.841249 22.155001 51.530624
-28.855 22.27 51.595627
-28.868126 22.385626 51.662498
-28.8825 22.50375 51.756248
-28.894375 22.62125 51.858749
-28.895 22.7425 51.998123
-28.893749 22.858749 52.083126
-28.8925 22.973125 52.108749
-28.890625 23.085625 52.134377
-28.886875 23.200001 52.170624
-28.883751 23.315624 52.230625
-28.885 23.43125 52.296875
-28.888124 23.549376 52.393124
-28.886875 23.66625 52.464375
-28.8925 23.783751 52.546249
-28.895624 23.900625 52.630001
-28.897499 24.014999 52.68375
-28.904375 24.131874 52.741249
-28.90625 24.25 52.842499
-28.90625 24.370001 52.941875
-30.143126 28.988125 72.570625
-30.135626 29.102501 72.544373
-30.139376 29.223125 72.555626
-30.143126 29.340626 72.58625
-30.143126 29.459375 72.59375
-30.140625 29.575624 72.608749
-30.141251 29.695 72.616249
-30.147499 29.814375 72.643127
-30.14875 29.93375 72.646873
-30.147499 30.049376 72.643127
-30.1425 30.16625 72.631874
-30.140625 30.283751 72.646873
-30.13875 30.400625 72.643127
-30.133751 30.519375 72.620628
-30.135626 30.635 72.598122
-30.136875 30.751249 72.598122
-30.1425 30.870625 72.620628
-30.15625 30.9925 72.668747
-30.159374 31.108749 72.672501
-30.161249 31.225 72.647499
-30.1625 31.340626 72.638748
-30.159374 31.45875 72.631248
-30.151875 31.575001 72.616249
-30.150625 31.693125 72.608749
-30.1525 31.80625 72.582497
-30.149376 31.92375 72.559998
-30.148125 32.039375 72.552498
-30.1425 32.154373 72.525627
-30.130625 32.268124 72.485001
-30.1425 32.389374 72.525627
-30.147499 32.508751 72.548752
-30.147499 32.627499 72.548752
-30.145624 32.741875 72.537498
-30.14875 32.863125 72.559998
-30.14625 32.981251 72.59375
-30.14875 33.103127 72.643127
-30.15625 33.221249 72.68
-30.154375 33.343124 72.703125
-30.155624 33.459999 72.714996
-30.156876 33.579376 72.737503
-30.156876 33.695625 72.763748
-30.158751 33.814377 72.763748
-30.164375 33.93 72.730003
-30.165625 34.046875 72.722504
-30.165001 34.165001 72.71875
-30.165625 34.281876 72.722504
-30.16375 34.39875 72.703125
-30.16 34.514999 72.684372
-30.157499 34.633125 72.68
-30.151251 34.747501 72.663124
-30.14625 34.8675 72.676247
-30.14875 34.985001 72.684372
-30.148125 35.103127 72.68
-30.141251 35.216251 72.654999
-30.143126 35.334373 72.650627
-30.147499 35.447498 72.616875
-30.148125 35.56625 72.613129
-30.143749 35.685001 72.624374
-30.141251 35.804375 72.639374
-30.143126 35.919376 72.624374
-30.145 36.036251 72.624374
-30.145 36.154373 72.624374
-30.145 36.271252 72.624374
-30.149376 36.386875 72.616875
-30.158125 36.509377 72.658752
-30.159374 36.626877 72.6875
-30.159374 36.749374 72.719376
-30.158125 36.865623 72.722504
-30.155624 36.985626 72.753754
-30.154375 37.105 72.801247
-30.155001 37.225624 72.817497
-30.161875 37.345001 72.839378
-30.161875 37.465 72.850624
-30.158125 37.581249 72.870003
-30.1525 37.700001 72.873749
-30.1525 37.816875 72.858749
-30.1525 37.936249 72.863129
-30.15 38.055626 72.889999
-30.145624 38.173752 72.936874
-30.150625 38.293125 72.944374
-30.150625 38.409374 72.923126
-30.151251 38.5275 72.915001
-30.158125 38.642502 72.911873
-30.164375 38.762501 72.931877
-30.163124 38.881248 72.968124
-30.16375 39.000626 72.971878
-30.165001 39.1175 72.963127
-30.164375 39.236874 72.980003
-30.161875 39.354374 72.986877
-30.16375 39.470627 72.950623
-30.16375 39.586876 72.950623
-30.1625 39.708126 72.983124
-30.161249 39.825626 72.998749
-30.16625 39.944374 73.017502
-30.168751 40.060001 73.013748
-30.171875 40.178123 72.990623
-30.174999 40.291874 72.954376
-30.174376 40.409374 72.942497
-30.174999 40.525623 72.938751
-30.174999 40.644375 72.938751
-30.174376 40.760624 72.960625
-30.172501 40.879375 72.956253
-30.165001 40.993752 72.923126
-30.15625 41.108749 72.892502
-30.154375 41.221249 72.85125
-30.155624 41.338749 72.835625
-30.15625 41.454376 72.831879
-30.155001 41.572498 72.811874
-30.155001 41.684376 72.745628
-30.158125 41.794998 72.695
-30.153749 41.909374 72.6325
-30.151875 42.021873 72.59375
-30.155001 42.138126 72.559998
-30.149376 42.249374 72.521248
-30.138124 42.361252 72.446877
-30.135 42.474377 72.419373
-30.133751 42.584999 72.340622
-30.126875 42.696877 72.264999
-30.123751 42.8125 72.241875
-30.120001 42.921875 72.181877
-30.116875 43.034374 72.112503
-30.103125 43.145 72.038124
-30.095625 43.2575 71.983749
-30.084375 43.369373 71.924377
-30.083124 43.479374 71.848747
-30.085625 43.59 71.798126
-30.083124 43.702499 71.712502
-30.074375 43.809376 71.618126
-30.063749 43.918125 71.526253
-30.059999 44.025623 71.440002
-30.057501 44.138748 71.372498
-30.046875 44.248749 71.311249
-30.044374 44.355625 71.213753
-30.040001 44.463123 71.113747
-30.031876 44.57 71.005623
-30.0275 44.68 70.936874
-30.0175 44.791248 70.860001
-30.012501 44.891876 70.706879
-30.005625 44.996876 70.582497
-29.991875 45.107498 70.501251
-29.986876 45.211876 70.392502
-29.984375 45.31625 70.268127
-29.979376 45.424374 70.161873
-29.969376 45.530624 70.044998
-29.96125 45.634377 69.919998
-29.951876 45.741249 69.803123
-29.934376 45.844376 69.674377
-29.921875 45.946251 69.53125
-29.915001 46.054375 69.438751
-29.905624 46.158127 69.318748
-29.88875 46.259377 69.172501
-29.879375 46.369999 69.089378
-29.869375 46.48 69.028122
-29.869375 46.589375 68.974998
-29.865 46.696251 68.8825
-29.858126 46.809376 68.821251
-29.860624 46.921249 68.791252
-29.861876 47.035 68.772499
-29.86875 47.149376 68.726875
-29.873751 47.26125 68.696877
-29.87875 47.376251 68.693123
-29.893126 47.49625 68.703751
-29.900625 47.608749 68.68
-29.911249 47.726875 68.700623
-29.922501 47.848751 68.738747
-29.928125 47.965626 68.753754
-29.939375 48.083126 68.776253
-28.475624 18.525625 48.240623
-28.476875 18.643749 48.355625
-28.481874 18.760626 48.477501
-28.488125 18.876249 48.590626
-28.49625 18.994375 48.703125
-28.501249 19.110624 48.810001
-28.509375 19.229376 48.928123
-28.523125 19.345625 49.061249
-28.530001 19.464375 49.179375
-28.535 19.58 49.290001
-28.531876 19.695625 49.38625
-28.528126 19.813126 49.456875
-28.532499 19.92625 49.50375
-28.535625 20.04125 49.581249
-28.54875 20.159374 49.708126
-28.55875 20.279375 49.810623
-28.566875 20.394375 49.9175
-28.57625 20.508125 50.017502
-28.591249 20.62875 50.146252
-28.603125 20.74625 50.254375
-28.61125 20.86375 50.343124
-28.612499 20.97625 50.408749
-28.615 21.091249 50.491249
-28.619375 21.209375 50.588123
-28.627501 21.325624 50.69875
-28.635 21.444374 50.795624
-28.638124 21.561251 50.903126
-28.637501 21.680626 50.994373
-28.651875 21.800625 51.165627
-28.672501 21.919374 51.311249
-28.679375 22.036249 51.40625
-28.6875 22.153749 51.491875
-28.69375 22.27 51.584999
-28.69875 22.384375 51.641251
-28.705 22.5 51.681252
-28.713125 22.615 51.729374
-28.715 22.733749 51.841251
-28.713125 22.85 51.926876
-28.710625 22.965 51.966251
-28.710625 23.08 52.008125
-28.71125 23.195 52.063126
-28.714375 23.310625 52.123123
-28.716875 23.428749 52.210625
-28.721874 23.545626 52.313126
-28.724375 23.66375 52.403751
-28.725 23.78125 52.489376
-28.7225 23.898125 52.568748
-28.727501 24.011875 52.611252
-28.729376 24.12875 52.665001
-28.725624 24.245625 52.759377
-29.985001 28.999374 72.745003
-29.9825 29.115 72.741249
-29.985624 29.235624 72.7575
-29.989374 29.354376 72.797501
-29.989374 29.473749 72.809372
-29.985001 29.59 72.828125
-29.984375 29.70875 72.831879
-29.985624 29.825624 72.835625
-29.98625 29.944374 72.839378
-29.98625 30.060625 72.839378
-29.984375 30.178749 72.839378
-29.980625 30.295626 72.858124
-29.979376 30.414375 72.858124
-29.97625 30.533751 72.835625
-29.97875 30.649376 72.813126
-29.98 30.765625 72.813126
-29.985001 30.884375 72.835625
-29.990625 31.004375 72.862503
-29.991875 31.120625 72.862503
-29.99625 31.239374 72.846878
-29.996876 31.355625 72.843124
-29.996876 31.474375 72.843124
-29.995001 31.590626 72.839378
-29.995625 31.70875 72.835625
-29.998751 31.821875 72.816872
-29.998751 31.940001 72.809372
-29.998751 32.056252 72.809372
-29.998125 32.174374 72.805
-29.991875 32.290001 72.783752
-29.998125 32.409374 72.805
-30 32.526249 72.813126
-29.998751 32.645 72.813126
-29.993126 32.760624 72.817497
-29.99375 32.880627 72.835625
-29.99 32.999374 72.866249
-29.98875 33.120625 72.903748
-29.994375 33.239376 72.926872
-29.99625 33.359375 72.938751
-30.001249 33.476875 72.963753
-30 33.598125 72.990623
-29.99625 33.715 73.013123
-29.99625 33.833752 73.013123
-30.001249 33.950001 72.998749
-30.008125 34.069374 73.013748
-30.009375 34.188751 73.017502
-30.008751 34.303749 73.005623
-30.004999 34.416874 72.949997
-30.004375 34.53125 72.930626
-30.00375 34.650002 72.926872
-29.998125 34.764999 72.900002
-29.991249 34.8825 72.893127
-29.991249 35.000626 72.904373
-29.99 35.119999 72.908127
-29.988125 35.236252 72.907501
-29.987499 35.354374 72.908127
-29.98625 35.467499 72.885628
-29.985001 35.585625 72.873749
-29.981874 35.701248 72.85125
-29.98 35.818748 72.839378
-29.981874 35.933125 72.824371
-29.986876 36.053123 72.835625
-29.988125 36.170624 72.839378
-29.987499 36.28875 72.843124
-29.985624 36.405624 72.861877
-29.987499 36.528126 72.911247
-29.989374 36.645626 72.927498
-29.997499 36.767502 72.948128
-29.998751 36.8825 72.943123
-29.998125 37.004375 72.974998
-29.995625 37.125626 73.048752
-29.994375 37.247501 73.088127
-30.003124 37.365623 73.089996
-30.004375 37.485626 73.105621
-30.000626 37.604374 73.145622
-29.995625 37.724998 73.180626
-29.993126 37.84375 73.199997
-29.991875 37.964375 73.224998
-29.991249 38.0825 73.221252
-29.9925 38.195625 73.199997
-29.996876 38.310623 73.161247
-29.991875 38.423752 73.116875
-29.9925 38.5425 73.113129
-29.998751 38.661877 73.138748
-29.996876 38.783749 73.176872
-29.99375 38.900623 73.199371
-29.994375 39.02 73.207497
-29.998751 39.139374 73.232498
-30.000626 39.258751 73.237503
-30 39.375626 73.241249
-30 39.493752 73.236877
-30 39.610001 73.236877
-29.998751 39.730625 73.256248
-29.99625 39.849998 73.294373
-30.009375 39.970627 73.309372
-30.020624 40.0825 73.263748
-30.022499 40.200001 73.252502
-30.020624 40.315624 73.259377
-30.020624 40.434376 73.259377
-30.021875 40.549999 73.236252
-30.016874 40.666248 73.200623
-30.011875 40.783749 73.224998
-30.011875 40.901875 73.217499
-30.008125 41.012501 73.161873
-30 41.129375 73.138123
-29.994375 41.244373 73.111252
-29.995001 41.359375 73.082497
-29.995625 41.474998 73.074371
-29.99625 41.593124 73.048126
-29.999374 41.705624 72.979378
-30.001875 41.816875 72.928123
-29.996876 41.931873 72.885628
-29.997499 42.045624 72.85125
-30.001249 42.160625 72.816872
-29.99375 42.271873 72.772499
-29.985624 42.384998 72.703751
-29.983126 42.499374 72.680626
-29.98 42.610626 72.616875
-29.977501 42.724377 72.559998
-29.971251 42.838749 72.521248
-29.966875 42.94875 72.457497
-29.965626 43.060001 72.379372
-29.953125 43.169376 72.302498
-29.948126 43.280624 72.248749
-29.94125 43.393124 72.196877
-29.938749 43.504375 72.120003
-29.938126 43.61375 72.050003
-29.934376 43.724998 71.969376
-29.923124 43.831875 71.879372
-29.915001 43.940624 71.787498
-29.908751 44.050625 71.716873
-29.905624 44.164375 71.659378
-29.897499 44.275002 71.609375
-29.893126 44.383125 71.503754
-29.889999 44.490623 71.406876
-29.87875 44.599377 71.318123
-29.874374 44.709373 71.247498
-29.86375 44.818748 71.149376
-29.858126 44.919998 71.005623
-29.855 45.025623 70.887497
-29.843124 45.134377 70.790001
-29.839375 45.240002 70.6875
-29.831249 45.345627 70.566872
-29.824375 45.453751 70.448753
-29.81625 45.55875 70.324997
-29.80875 45.661877 70.203751
-29.799376 45.768124 70.074997
-29.782499 45.869999 69.938751
-29.77 45.971249 69.776253
-29.76125 46.078125 69.666878
-29.752501 46.180626 69.538124
-29.74 46.28125 69.379997
-29.73 46.387501 69.261871
-29.719999 46.49625 69.188126
-29.715 46.604374 69.119377
-29.704374 46.710625 69.02375
-29.693125 46.821251 68.946251
-29.69375 46.931252 68.904373
-29.692499 47.043125 68.859375
-29.695625 47.158749 68.813751
-29.700624 47.27 68.783752
-29.706249 47.381874 68.7575
-29.715 47.500626 68.753754
-29.720625 47.615002 68.726875
-29.729376 47.730625 68.727501
-29.74 47.850624 68.761253
-29.749374 47.96875 68.794998
-29.760626 48.085625 68.806252
-28.321251 18.640625 48.285
-28.324375 18.759375 48.420624
-28.330626 18.875 48.533127
-28.334999 18.990625 48.639374
-28.33625 19.106251 48.732498
-28.343124 19.225 48.846249
-28.356251 19.341249 48.97625
-28.360001 19.459375 49.083752
-28.359375 19.575001 49.175625
-28.35375 19.690624 49.275002
-28.356874 19.809376 49.393124
-28.366875 19.924999 49.463749
-28.375 20.040001 49.537498
-28.385626 20.156876 49.666248
-28.391251 20.278126 49.793125
-28.398125 20.393749 49.896252
-28.403749 20.50625 49.955002
-28.411875 20.625 50.054375
-28.411249 20.74 50.123749
-28.4125 20.855 50.17625
-28.4125 20.966875 50.223125
-28.420626 21.081875 50.30875
-28.434376 21.20125 50.426876
-28.450624 21.32 50.588123
-28.459999 21.440624 50.709999
-28.465626 21.559376 50.825001
-28.4725 21.679375 50.946877
-28.49 21.799376 51.129375
-28.514376 21.918751 51.282501
-28.52125 22.034374 51.366249
-28.523125 22.150625 51.448124
-28.523125 22.268126 51.529999
-28.52125 22.38125 51.56625
-28.520624 22.495001 51.577499
-28.52125 22.606874 51.584999
-28.52 22.721874 51.631874
-28.5175 22.84 51.710625
-28.513124 22.956249 51.7925
-28.525 23.074375 51.889374
-28.536875 23.190624 51.977501
-28.549376 23.30625 52.048126
-28.55625 23.424999 52.14875
-28.563749 23.54125 52.244373
-28.563749 23.66 52.341873
-28.559999 23.778749 52.431252
-28.553125 23.895 52.51125
-28.55625 24.009375 52.553749
-28.55875 24.125626 52.607498
-28.55625 24.241249 52.675625
-29.823126 28.890625 72.896248
-29.825001 29.01 72.911873
-29.823126 29.126875 72.934998
-29.828751 29.248125 72.963753
-29.833124 29.365625 72.991249
-29.8325 29.484375 72.995003
-29.826876 29.600624 72.998749
-29.825624 29.719376 72.998749
-29.82625 29.835625 73.002502
-29.829374 29.955 73.025627
-29.83 30.071251 73.029373
-29.828751 30.190001 73.029373
-29.821875 30.30625 73.028748
-29.820625 30.425625 73.028748
-29.82 30.545 73.025002
-29.821875 30.661249 73.025627
-29.823126 30.779375 73.025627
-29.828751 30.89625 73.029373
-29.829374 31.014999 73.028748
-29.831875 31.131874 73.036873
-29.836876 31.25375 73.051872
-29.8375 31.370625 73.059372
-29.8375 31.489374 73.059372
-29.838751 31.605625 73.063126
-29.838751 31.724375 73.063126
-29.839375 31.84 73.059372
-29.84 31.95875 73.055626
-29.841875 32.075001 73.055626
-29.8475 32.193748 73.074371
-29.8475 32.310001 73.073753
-29.8475 32.429375 73.08625
-29.848125 32.546249 73.09375
-29.8475 32.665001 73.098122
-29.84375 32.780624 73.107498
-29.84 32.89875 73.094376
-29.835625 33.016876 73.123123
-29.834375 33.138126 73.165001
-29.835625 33.255627 73.176247
-29.835625 33.375626 73.183746
-29.839375 33.494373 73.203125
-29.840626 33.614376 73.210625
-29.84 33.730625 73.214378
-29.84 33.849377 73.21875
-29.841875 33.966251 73.236252
-29.848125 34.088123 73.259377
-29.849375 34.208126 73.263123
-29.848125 34.32375 73.254997
-29.842501 34.4375 73.203125
-29.843124 34.55125 73.183746
-29.842501 34.669376 73.180626
-29.838751 34.785625 73.165627
-29.835625 34.903751 73.168747
-29.836876 35.020626 73.176247
-29.831875 35.139999 73.18
-29.827499 35.258125 73.195625
-29.82625 35.378124 73.220627
-29.825624 35.493752 73.216873
-29.82625 35.610626 73.184372
-29.82375 35.720627 73.114998
-29.820625 35.835625 73.067497
-29.82 35.950626 73.055626
-29.821251 36.07 73.059372
-29.821251 36.186249 73.059372
-29.821251 36.305 73.059372
-29.821251 36.421875 73.071251
-29.823126 36.543751 73.114998
-29.825001 36.661877 73.126877
-29.831875 36.783749 73.154373
-29.831249 36.901249 73.176247
-29.834999 37.02375 73.21125
-29.838125 37.144375 73.263123
-29.840626 37.265625 73.294373
-29.846251 37.384998 73.33625
-29.8475 37.5075 73.394997
-29.8475 37.625 73.419373
-29.846874 37.74625 73.455627
-29.846251 37.865002 73.478752
-29.84375 37.986252 73.490623
-29.843124 38.103748 73.464378
-29.844999 38.216873 73.431252
-29.84375 38.334373 73.430626
-29.835625 38.450001 73.426247
-29.83375 38.569374 73.430626
-29.833124 38.688751 73.452499
-29.831875 38.80875 73.460625
-29.83625 38.922501 73.431877
-29.836876 39.040627 73.427498
-29.8375 39.16 73.475624
-29.839375 39.279373 73.472504
-29.84 39.395626 73.47625
-29.8375 39.514374 73.491249
-29.838125 39.631248 73.495003
-29.840626 39.751877 73.510628
-29.841875 39.869999 73.543121
-29.85375 39.990002 73.555
-29.863125 40.105625 73.529999
-29.865625 40.223751 73.517502
-29.865 40.34 73.521248
-29.864374 40.458126 73.517502
-29.865 40.57375 73.502502
-29.862499 40.688751 73.459999
-29.856251 40.801876 73.435623
-29.855 40.919376 73.412498
-29.849375 41.031876 73.373123
-29.844999 41.149376 73.348122
-29.843124 41.263748 73.328751
-29.839375 41.376877 73.290001
-29.838751 41.491875 73.282501
-29.838751 41.611252 73.278748
-29.839375 41.729374 73.267502
-29.839375 41.845001 73.255623
-29.835625 41.96125 73.216873
-29.83375 42.074375 73.165627
-29.8375 42.188751 73.115623
-29.830626 42.299374 73.059998
-29.828125 42.410625 72.995003
-29.825001 42.52375 72.948753
-29.820625 42.635624 72.881874
-29.8225 42.749374 72.835625
-29.81875 42.860626 72.776253
-29.814375 42.971249 72.71875
-29.811874 43.083752 72.645622
-29.804375 43.19125 72.548752
-29.799999 43.30125 72.477501
-29.796875 43.412498 72.415627
-29.790625 43.525002 72.349373
-29.785625 43.633751 72.272499
-29.786249 43.749374 72.223122
-29.779375 43.858749 72.147499
-29.774376 43.966251 72.046249
-29.768126 44.075001 71.970001
-29.759375 44.188751 71.912498
-29.749374 44.298752 71.860626
-29.748751 44.40625 71.754997
-29.749374 44.514999 71.666878
-29.735624 44.625 71.592499
-29.73 44.734375 71.518753
-29.723749 44.842499 71.401878
-29.717501 44.946251 71.285622
-29.716249 45.054375 71.186874
-29.70125 45.161251 71.077499
-29.695625 45.268749 70.971252
-29.682501 45.374374 70.849998
-29.671875 45.480625 70.730621
-29.66375 45.584999 70.608124
-29.65625 45.689377 70.495003
-29.64875 45.794998 70.355003
-29.635 45.895626 70.203751
-29.62125 45.996876 70.037498
-29.614374 46.101875 69.904999
-29.606874 46.205002 69.776253
-29.594999 46.309376 69.654999
-29.580626 46.414375 69.52375
-29.569374 46.519375 69.419998
-29.561874 46.621876 69.303749
-29.545626 46.726875 69.191254
-29.531876 46.839375 69.122498
-29.530624 46.950001 69.081253
-29.529375 47.059376 69.016251
-29.526875 47.169998 68.938751
-29.53125 47.280624 68.896873
-29.536875 47.391876 68.851875
-29.540001 47.509377 68.83625
-29.541876 47.623749 68.809998
-29.547501 47.736874 68.791252
-29.556875 47.855 68.806252
-29.56625 47.971249 68.817497
-29.577499 48.090626 68.839996
-28.178749 18.639999 48.2925
-28.184376 18.759375 48.43
-28.18375 18.875 48.525002
-28.179375 18.99 48.603748
-28.17625 19.105 48.675625
-28.180626 19.223749 48.78125
-28.189375 19.339375 48.891251
-28.19125 19.455 48.983124
-28.19125 19.57 49.075001
-28.185625 19.686251 49.189999
-28.195 19.805626 49.338749
-28.208124 19.924376 49.456249
-28.219999 20.040625 49.555626
-28.22875 20.15625 49.666248
-28.235624 20.275 49.767502
-28.245625 20.390625 49.856251
-28.25 20.505625 49.927502
-28.256874 20.623751 50.021873
-28.25625 20.73625 50.080624
-28.258125 20.850624 50.119999
-28.253124 20.965 50.17625
-28.258125 21.080626 50.279999
-28.269375 21.199375 50.380001
-28.283751 21.317499 50.52
-28.289375 21.438749 50.638748
-28.296249 21.555626 50.75
-28.309376 21.675625 50.884998
-28.321251 21.795 51.047501
-28.338751 21.91375 51.191875
-28.341875 22.030001 51.2775
-28.34375 22.145624 51.362499
-28.346251 22.264376 51.451874
-28.344376 22.379375 51.488125
-28.342501 22.49375 51.514374
-28.342501 22.605 51.528126
-28.344999 22.717501 51.559376
-28.344999 22.834999 51.63625
-28.336876 22.95125 51.725624
-28.352501 23.070625 51.836876
-28.370625 23.189375 51.945
-28.38875 23.305626 52.037498
-28.399376 23.424376 52.141251
-28.40625 23.540001 52.223751
-28.401251 23.65625 52.296249
-28.398125 23.775 52.378124
-28.391251 23.890625 52.4575
-28.391874 24.00625 52.51125
-29.655001 28.665001 73.025002
-29.655624 28.783751 73.028748
-29.661249 28.901251 73.059372
-29.666876 29.023125 73.107498
-29.665001 29.139999 73.141876
-29.668125 29.259375 73.165001
-29.669374 29.375626 73.172501
-29.670626 29.494375 73.176247
-29.67 29.61125 73.180626
-29.67 29.73 73.180626
-29.670626 29.846874 73.188751
-29.67375 29.968124 73.228752
-29.674376 30.084999 73.236877
-29.673124 30.203751 73.232498
-29.66625 30.320625 73.21875
-29.665001 30.440001 73.214378
-29.666876 30.55875 73.214996
-29.671875 30.674999 73.232498
-29.673124 30.793751 73.236877
-29.672501 30.910625 73.236252
-29.668125 31.029375 73.227501
-29.672501 31.146875 73.248123
-29.671875 31.268749 73.275002
-29.668125 31.385626 73.301872
-29.668751 31.504375 73.305
-29.674999 31.620625 73.32
-29.67625 31.739374 73.323753
-29.676874 31.856251 73.324371
-29.678749 31.975 73.313126
-29.68375 32.091251 73.290627
-29.688749 32.209999 73.309372
-29.6875 32.326874 73.324997
-29.683125 32.44875 73.364998
-29.684999 32.568127 73.399376
-29.684999 32.6875 73.411247
-29.686251 32.800625 73.392502
-29.683125 32.916248 73.348122
-29.68 33.034374 73.361877
-29.679375 33.154373 73.388748
-29.679375 33.271252 73.400002
-29.676874 33.392502 73.415001
-29.6775 33.510624 73.426247
-29.682501 33.629375 73.426247
-29.68375 33.745625 73.426247
-29.68375 33.864376 73.426247
-29.68375 33.980625 73.430626
-29.684999 34.100624 73.434372
-29.684999 34.220001 73.434372
-29.684376 34.335625 73.430626
-29.68 34.451874 73.411247
-29.67625 34.568748 73.419373
-29.67375 34.688126 73.436874
-29.673124 34.804375 73.433128
-29.675625 34.923126 73.419373
-29.679375 35.039375 73.418747
-29.6775 35.158127 73.418747
-29.67375 35.273125 73.411247
-29.671249 35.393124 73.423126
-29.671875 35.509377 73.419373
-29.673124 35.624374 73.387497
-29.668125 35.736252 73.33625
-29.6625 35.853748 73.305
-29.661249 35.970627 73.305626
-29.66 36.088749 73.301247
-29.661875 36.205002 73.301247
-29.661875 36.32375 73.301247
-29.661249 36.439999 73.305
-29.658125 36.560001 73.324371
-29.657499 36.679375 73.340622
-29.661875 36.800625 73.373123
-29.663124 36.919376 73.400002
-29.67 37.040627 73.431252
-29.676874 37.160625 73.471878
-29.6875 37.283127 73.514374
-29.696875 37.401249 73.554375
-29.702499 37.52375 73.59375
-29.705626 37.638126 73.582497
-29.706875 37.7575 73.594376
-29.710625 37.876251 73.628754
-29.709375 37.997501 73.643753
-29.701876 38.119373 73.680626
-29.689375 38.239376 73.72625
-29.684999 38.358749 73.737503
-29.678125 38.475624 73.741249
-29.676874 38.594376 73.741249
-29.674999 38.712502 73.758125
-29.672501 38.833752 73.775627
-29.673124 38.949375 73.763748
-29.674376 39.065624 73.731247
-29.678125 39.181252 73.726875
-29.680626 39.299999 73.726875
-29.684376 39.416874 73.746246
-29.684999 39.535625 73.75
-29.688749 39.650002 73.719376
-29.690001 39.766876 73.699997
-29.690001 39.88625 73.727501
-29.695625 40.008751 73.771873
-29.70125 40.127499 73.782501
-29.706875 40.244373 73.753754
-29.7075 40.359375 73.741875
-29.704374 40.475624 73.71875
-29.703751 40.591251 73.699997
-29.702499 40.708752 73.684998
-29.69375 40.821877 73.661873
-29.6875 40.939377 73.650002
-29.682501 41.054375 73.621246
-29.684376 41.169376 73.589378
-29.686251 41.282501 73.5625
-29.678749 41.399376 73.533752
-29.6775 41.514999 73.525627
-29.676874 41.633751 73.517502
-29.676874 41.753124 73.517502
-29.676874 41.8675 73.498123
-29.6775 41.981251 73.438751
-29.674999 42.095627 73.403748
-29.673124 42.212502 73.385002
-29.66375 42.32375 73.341873
-29.665001 42.43375 73.259377
-29.664375 42.544998 73.184998
-29.658125 42.659374 73.138123
-29.66 42.772499 73.096252
-29.659374 42.883751 73.021248
-29.653126 42.994999 72.978752
-29.648125 43.108749 72.923752
-29.647499 43.216873 72.839378
-29.645624 43.328125 72.760628
-29.643749 43.439377 72.684372
-29.636875 43.552502 72.638123
-29.626875 43.661251 72.564377
-29.62875 43.7775 72.518127
-29.628124 43.885624 72.434998
-29.626875 43.993126 72.333122
-29.621876 44.098751 72.238129
-29.61375 44.210625 72.16375
-29.60375 44.320625 72.098122
-29.599375 44.431252 72.015625
-29.598749 44.541248 71.943123
-29.5875 44.649376 71.845001
-29.584375 44.755627 71.746872
-29.58375 44.862499 71.623123
-29.578751 44.970627 71.535004
-29.574375 45.083126 71.470001
-29.553749 45.189999 71.376251
-29.546875 45.295624 71.254997
-29.53875 45.401249 71.134377
-29.525625 45.508751 71.027496
-29.513124 45.611252 70.888123
-29.505625 45.716251 70.763748
-29.5 45.82375 70.638748
-29.487499 45.925625 70.510002
-29.471874 46.029373 70.370003
-29.463751 46.133125 70.222504
-29.455 46.232498 70.059998
-29.445625 46.334999 69.923752
-29.428749 46.439999 69.791252
-29.41375 46.543751 69.663124
-29.403749 46.644375 69.519379
-29.388124 46.747501 69.39875
-29.375 46.858124 69.315002
-29.37125 46.967499 69.25
-29.36875 47.07375 69.157501
-29.362499 47.181252 69.061874
-29.364374 47.293751 69.016876
-29.362499 47.404999 68.967499
-29.366249 47.519375 68.931252
-29.370001 47.631248 68.896873
-29.376249 47.745625 68.874374
-29.383751 47.863125 68.866249
-29.390625 47.97625 68.847504
-29.398125 48.094376 68.866249
-28.029375 18.639376 48.271873
-28.03875 18.758125 48.408749
-28.030001 18.873751 48.493752
-28.018749 18.988125 48.547501
-28.014999 19.10125 48.614376
-28.019375 19.219376 48.717499
-28.025 19.334999 48.813751
-28.03125 19.450624 48.9025
-28.036249 19.56625 49.012501
-28.032499 19.684376 49.145626
-28.035625 19.804375 49.293751
-28.045626 19.924376 49.449375
-28.061251 20.043125 49.601875
-28.06875 20.159374 49.701248
-28.07625 20.275625 49.761875
-28.084375 20.389999 49.83625
-28.09 20.505625 49.930626
-28.1 20.623751 50.021252
-28.105 20.735624 50.076874
-28.110624 20.85 50.113125
-28.106874 20.965 50.18
-28.1075 21.080626 50.294998
-28.109375 21.200001 50.394375
-28.118126 21.31875 50.525623
-28.119375 21.438126 50.633125
-28.127501 21.5525 50.713123
-28.144375 21.672501 50.817501
-28.145624 21.790001 50.943748
-28.148125 21.90625 51.07
-28.146875 22.024376 51.151249
-28.158125 22.140625 51.243752
-28.171249 22.259375 51.373749
-28.172501 22.375626 51.43375
-28.17375 22.490625 51.484375
-28.176874 22.605 51.533749
-28.181875 22.719376 51.57
-28.186251 22.834999 51.633125
-28.180626 22.950624 51.71875
-28.19375 23.07 51.830002
-28.210625 23.189375 51.94875
-28.228125 23.305626 52.048752
-28.238125 23.42375 52.134998
-28.243126 23.540001 52.203751
-28.236876 23.655624 52.267502
-28.235624 23.77375 52.341873
-28.231251 23.889376 52.403751
-28.234375 24.004375 52.442501
-29.499374 28.435625 73.153748
-29.497499 28.555626 73.169373
-29.495001 28.671875 73.184372
-29.495001 28.79125 73.191872
-29.499374 28.911249 73.222504
-29.50375 29.033751 73.275002
-29.500626 29.150625 73.305626
-29.500626 29.269375 73.313126
-29.501875 29.385626 73.316872
-29.508751 29.505625 73.339996
-29.51375 29.624374 73.365623
-29.514376 29.74375 73.370003
-29.514999 29.860624 73.377502
-29.514999 29.98 73.404373
-29.514376 30.096874 73.412498
-29.514376 30.215626 73.411873
-29.510626 30.334375 73.422501
-29.510626 30.453751 73.422501
-29.513124 30.570625 73.407501
-29.514999 30.686251 73.408127
-29.513124 30.80625 73.419998
-29.51 30.925625 73.443123
-29.506874 31.045 73.463753
-29.513124 31.16375 73.480003
-29.514999 31.283751 73.495628
-29.511875 31.4 73.527496
-29.511875 31.518749 73.521873
-29.518749 31.635626 73.528748
-29.52 31.754999 73.533127
-29.518749 31.873751 73.558128
-29.514999 31.99375 73.585625
-29.52 32.110001 73.563126
-29.524376 32.228748 73.581879
-29.521875 32.345627 73.608749
-29.520624 32.464375 73.612503
-29.523125 32.581875 73.609375
-29.518749 32.703125 73.638123
-29.516874 32.818748 73.634377
-29.516251 32.935001 73.59375
-29.518126 33.05125 73.574997
-29.52 33.169376 73.574997
-29.523125 33.285625 73.58625
-29.522499 33.405624 73.597504
-29.52 33.524376 73.612503
-29.52 33.643749 73.620003
-29.519375 33.760624 73.623749
-29.519375 33.879375 73.623749
-29.520624 33.994999 73.616249
-29.52 34.11375 73.611877
-29.520624 34.233749 73.616249
-29.520624 34.349998 73.616249
-29.518749 34.467499 73.612503
-29.516251 34.5825 73.597504
-29.5175 34.700626 73.583122
-29.518126 34.816875 73.579376
-29.518749 34.935623 73.578751
-29.519375 35.052502 73.597504
-29.516251 35.173752 73.620003
-29.515625 35.289375 73.616249
-29.519375 35.40625 73.60125
-29.522499 35.521252 73.578125
-29.52375 35.637501 73.557503
-29.52 35.751877 73.540627
-29.514376 35.87125 73.537498
-29.509375 35.989376 73.550629
-29.504999 36.105625 73.533752
-29.51125 36.221249 73.529373
-29.512501 36.340626 73.533127
-29.51125 36.456875 73.529373
-29.50375 36.575626 73.522499
-29.500626 36.696251 73.558746
-29.504375 36.818127 73.605003
-29.504999 36.936874 73.624374
-29.510626 37.058125 73.653748
-29.516251 37.176876 73.684998
-29.526251 37.298752 73.71875
-29.535625 37.4175 73.758125
-29.543125 37.541874 73.816872
-29.545626 37.66 73.836876
-29.546249 37.778751 73.845001
-29.55125 37.896252 73.870003
-29.553125 38.016251 73.868752
-29.549999 38.137501 73.910004
-29.5375 38.259377 73.984375
-29.533751 38.380627 74.0075
-29.530624 38.5 74.030624
-29.530624 38.620625 74.046249
-29.528126 38.739376 74.078751
-29.525625 38.859375 74.091248
-29.525625 38.975624 74.091248
-29.525 39.093124 74.074997
-29.521875 39.206875 74.03875
-29.522499 39.325001 74.035004
-29.528126 39.444374 74.056252
-29.530624 39.5625 74.048752
-29.536249 39.673126 73.989372
-29.536875 39.786877 73.936874
-29.535 39.90625 73.951874
-29.536875 40.025623 73.977501
-29.538124 40.142502 73.985626
-29.539375 40.260624 73.973122
-29.53875 40.376877 73.96875
-29.534374 40.494373 73.943748
-29.533751 40.610626 73.935623
-29.533125 40.729374 73.928123
-29.526251 40.84375 73.904999
-29.52375 40.959999 73.893753
-29.520624 41.075001 73.870003
-29.521875 41.189999 73.837502
-29.525 41.305 73.814377
-29.524376 41.423126 73.802498
-29.526251 41.536251 73.775002
-29.525 41.651875 73.735001
-29.523125 41.77 73.715622
-29.519375 41.883125 73.673126
-29.516251 41.999374 73.6325
-29.514376 42.115002 73.620628
-29.510626 42.230625 73.593124
-29.503124 42.341251 73.537498
-29.50375 42.451248 73.450623
-29.506874 42.5625 73.385002
-29.501249 42.678123 73.340622
-29.499374 42.788124 73.282501
-29.49625 42.901249 73.208122
-29.487499 43.015625 73.184372
-29.484375 43.133125 73.168747
-29.485624 43.243752 73.111877
-29.48625 43.352501 73.013748
-29.483126 43.461876 72.928123
-29.475624 43.575001 72.889374
-29.463751 43.685623 72.831879
-29.465 43.802502 72.793747
-29.465626 43.910625 72.71125
-29.464375 44.02 72.624374
-29.46125 44.12875 72.544373
-29.45875 44.239376 72.465622
-29.450001 44.3475 72.385628
-29.443125 44.463123 72.333748
-29.446251 44.573124 72.260628
-29.439375 44.675625 72.110001
-29.435625 44.78125 72.008125
-29.436874 44.889374 71.904999
-29.430626 44.996876 71.807503
-29.423124 45.109375 71.747498
-29.407499 45.219376 71.678123
-29.4025 45.324375 71.53875
-29.39625 45.43 71.414375
-29.384375 45.537498 71.306877
-29.370001 45.639999 71.161873
-29.360624 45.744373 71.03875
-29.353125 45.853127 70.9375
-29.3375 45.955624 70.8125
-29.32 46.059376 70.668747
-29.309376 46.16375 70.532501
-29.297501 46.263748 70.377502
-29.286249 46.362499 70.21125
-29.273125 46.465 70.052498
-29.262501 46.56625 69.897499
-29.250626 46.666248 69.7425
-29.241875 46.768749 69.602501
-29.231874 46.871876 69.447502
-29.221251 46.97625 69.338753
-29.21125 47.081875 69.235001
-29.201876 47.19125 69.157501
-29.20125 47.304375 69.119377
-29.194374 47.415627 69.077499
-29.199375 47.529373 69.024376
-29.201876 47.639999 68.975624
-29.2075 47.754375 68.959999
-29.2125 47.869373 68.927498
-29.219999 47.981251 68.889374
-29.226875 48.096874 68.900627
-27.84375 18.633751 48.119999
-27.849375 18.75 48.23
-27.843124 18.865 48.318748
-27.838751 18.98 48.406876
-27.845625 19.095625 48.522499
-27.855 19.215 48.643749
-27.862499 19.331249 48.750626
-27.873751 19.44875 48.846249
-27.88125 19.564375 48.954376
-27.88125 19.680626 49.088123
-27.877501 19.800625 49.233749
-27.879375 19.92 49.38625
-27.891874 20.040001 49.556252
-27.901875 20.159374 49.697498
-27.91625 20.2775 49.782501
-27.921249 20.390625 49.836876
-27.92625 20.505625 49.921249
-27.940001 20.623125 50.01125
-27.9475 20.735624 50.07375
-27.954374 20.85 50.116875
-27.956249 20.965 50.184376
-27.956249 21.080626 50.276875
-27.956249 21.19875 50.369373
-27.960625 21.31625 50.494373
-27.960625 21.434376 50.587502
-27.964375 21.549376 50.651249
-27.975 21.666876 50.727501
-27.973749 21.784374 50.835625
-27.97625 21.901251 50.954376
-27.975 22.02 51.058125
-27.987499 22.135626 51.151249
-28.000626 22.254999 51.285
-28.004375 22.373751 51.391876
-28.008751 22.49 51.462502
-28.0175 22.605 51.529999
-28.025 22.719999 51.57375
-28.030001 22.834999 51.633125
-28.028749 22.950624 51.71125
-28.036249 23.07 51.826248
-28.049376 23.188749 51.94875
-28.061874 23.304375 52.02375
-28.06875 23.420626 52.088749
-28.074375 23.538124 52.160625
-28.074375 23.654375 52.245625
-28.07625 23.770624 52.3125
-28.0725 23.885 52.360626
-29.334375 28.446875 73.339996
-29.331249 28.568125 73.376251
-29.33 28.684999 73.392502
-29.329374 28.805 73.403748
-29.334375 28.924376 73.431252
-29.338751 29.044374 73.464378
-29.33625 29.160625 73.487503
-29.33625 29.280001 73.495003
-29.3375 29.396875 73.498749
-29.346251 29.518126 73.525627
-29.353125 29.63625 73.555
-29.35375 29.75625 73.571251
-29.356251 29.875 73.59375
-29.354376 29.995001 73.616875
-29.351875 30.113125 73.633751
-29.35375 30.23 73.620628
-29.35375 30.346251 73.620003
-29.35375 30.465626 73.620003
-29.354376 30.584375 73.616249
-29.353125 30.70125 73.624374
-29.348749 30.823126 73.664375
-29.346874 30.943125 73.695625
-29.346251 31.059999 73.699997
-29.351875 31.17625 73.673752
-29.361876 31.295 73.666252
-29.363125 31.410625 73.669998
-29.360624 31.530624 73.692497
-29.36375 31.649376 73.730003
-29.364374 31.768749 73.737503
-29.36375 31.88625 73.746246
-29.360624 32.008125 73.775002
-29.361876 32.125 73.775627
-29.364374 32.244373 73.802498
-29.36125 32.362499 73.842499
-29.360624 32.48 73.836876
-29.36375 32.595627 73.813751
-29.361876 32.715 73.814377
-29.356251 32.831875 73.818123
-29.353125 32.951874 73.821251
-29.35375 33.068748 73.817497
-29.356874 33.184376 73.798752
-29.360624 33.300625 73.783752
-29.360624 33.419376 73.783752
-29.359375 33.536251 73.791252
-29.355625 33.655624 73.806252
-29.351875 33.774376 73.828751
-29.353125 33.893124 73.821251
-29.3575 34.006248 73.786873
-29.355625 34.122501 73.761871
-29.3575 34.243752 73.775002
-29.3575 34.360626 73.783127
-29.354376 34.480625 73.802498
-29.354376 34.598751 73.806252
-29.355 34.718124 73.802498
-29.355 34.834373 73.802498
-29.355625 34.953125 73.802498
-29.358749 35.07 73.813751
-29.356251 35.189377 73.832497
-29.356874 35.305626 73.83625
-29.36375 35.423752 73.836876
-29.365 35.541248 73.841248
-29.363125 35.661251 73.853752
-29.358126 35.776249 73.841248
-29.358749 35.894375 73.817497
-29.358126 36.010624 73.814377
-29.35375 36.125626 73.791252
-29.355 36.241875 73.787498
-29.352501 36.362499 73.798126
-29.35 36.478748 73.794373
-29.34375 36.595627 73.775627
-29.342501 36.715 73.787498
-29.3475 36.834999 73.813751
-29.346874 36.954376 73.841248
-29.354376 37.075626 73.878128
-29.360001 37.194374 73.904999
-29.366875 37.315624 73.936249
-29.373751 37.434376 73.96875
-29.379375 37.556873 74.019997
-29.383125 37.678749 74.078751
-29.38125 37.799374 74.113747
-29.379375 37.919376 74.151253
-29.383125 38.043125 74.201248
-29.38625 38.16375 74.238129
-29.383751 38.281876 74.261871
-29.383125 38.404373 74.289375
-29.386875 38.525002 74.336876
-29.391874 38.647499 74.363747
-29.391874 38.765625 74.379997
-29.387501 38.884377 74.387497
-29.38625 39.001251 74.387497
-29.383751 39.119999 74.388123
-29.375 39.235001 74.360626
-29.372499 39.351875 74.361252
-29.372499 39.470627 74.365623
-29.37125 39.59 74.361252
-29.372499 39.702499 74.329376
-29.371876 39.815624 74.28125
-29.370001 39.933125 74.268753
-29.366875 40.049374 74.254372
-29.366249 40.164375 74.238747
-29.366249 40.283127 74.221252
-29.36375 40.39875 74.208748
-29.358126 40.514999 74.189377
-29.3575 40.630627 74.181877
-29.360001 40.748749 74.158752
-29.3575 40.861874 74.126251
-29.360001 40.979374 74.102501
-29.36125 41.094376 74.087502
-29.36375 41.209999 74.068123
-29.365 41.325626 74.060623
-29.365 41.444374 74.056252
-29.3675 41.55875 74.023125
-29.36875 41.674999 73.988129
-29.365625 41.7925 73.957497
-29.36125 41.904999 73.910004
-29.356874 42.02 73.874374
-29.356251 42.135624 73.866249
-29.354376 42.253124 73.837502
-29.3475 42.364376 73.793747
-29.340626 42.474998 73.715622
-29.344999 42.585625 73.653748
-29.342501 42.700626 73.60125
-29.335625 42.811874 73.541878
-29.326876 42.924999 73.471878
-29.321251 43.037498 73.419998
-29.321875 43.154373 73.404373
-29.320625 43.268749 73.380623
-29.318125 43.381248 73.313126
-29.317499 43.489376 73.224998
-29.315624 43.599377 73.135002
-29.30625 43.708126 73.056877
-29.305626 43.82375 73.021873
-29.303749 43.935001 72.968124
-29.300625 44.045624 72.896873
-29.299999 44.155624 72.824371
-29.301874 44.268749 72.768753
-29.294374 44.376877 72.692497
-29.2875 44.4925 72.641876
-29.290625 44.601875 72.563751
-29.284374 44.703125 72.401253
-29.28125 44.809376 72.303123
-29.283751 44.919376 72.215622
-29.278749 45.026249 72.125
-29.27 45.13625 72.041878
-29.26 45.247501 71.973122
-29.25 45.35125 71.826248
-29.2425 45.455624 71.690002
-29.238125 45.561249 71.565628
-29.225 45.665001 71.421249
-29.215626 45.768124 71.301247
-29.208124 45.87875 71.213127
-29.19125 45.983749 71.092499
-29.168751 46.08625 70.952499
-29.159374 46.190624 70.82
-29.15 46.293751 70.683746
-29.135626 46.393749 70.525002
-29.123125 46.494999 70.35125
-29.109375 46.594376 70.173752
-29.094376 46.69125 69.9925
-29.086876 46.790627 69.824997
-29.08 46.891251 69.637497
-29.071251 46.9925 69.504372
-29.057501 47.096874 69.395622
-29.041876 47.205624 69.303749
-29.036249 47.315624 69.2425
-29.031876 47.42625 69.183746
-29.036875 47.53875 69.119377
-29.035625 47.647499 69.066254
