ply
format ascii 1.0
comment PCL generated
element vertex 1602
property float x
property float y
property float z
element camera 0
property float view_px
property float view_py
property float view_pz
property float x_axisx
property float x_axisy
property float x_axisz
property float y_axisx
property float y_axisy
property float y_axisz
property float z_axisx
property float z_axisy
property float z_axisz
property float focal
property float scalex
property float scaley
property float centerx
property float centery
property int viewportx
property int viewporty
property float k1
property float k2
end_header
36.590626 17.855625 -58.897499
36.584999 17.938749 -58.96875
36.57375 18.02 -59.046875
36.55875 18.1 -59.139374
36.551876 18.179375 -59.228748
36.547501 18.260626 -59.310623
36.544376 18.340626 -59.401249
36.530624 18.42 -59.50375
36.521873 18.5 -59.599377
36.516876 18.580626 -59.68
36.505001 18.66375 -59.764374
36.495625 18.745001 -59.853127
36.488125 18.825001 -59.934376
36.474998 18.905001 -60.035625
36.46125 18.984375 -60.125626
36.456249 19.064375 -60.213749
36.455002 19.145 -60.309376
36.44875 19.224375 -60.395
36.438751 19.304375 -60.488125
36.428123 19.383751 -60.578751
36.415627 19.46125 -60.673126
36.409374 19.540625 -60.76125
36.400623 19.62125 -60.855
36.390625 19.705 -60.946251
36.380627 19.785 -61.03125
36.368126 19.865 -61.105625
36.350624 19.945 -61.186874
36.339375 20.025625 -61.271252
36.326248 20.105625 -61.351875
36.314377 20.185625 -61.419376
36.303749 20.266874 -61.485001
36.303749 20.35 -61.518124
36.300625 20.434999 -61.560001
36.294998 20.519375 -61.599998
36.289375 20.600624 -61.646252
36.285 20.68375 -61.686249
36.287498 20.765625 -61.713123
36.283749 20.85 -61.730625
36.279373 20.934999 -61.749374
36.278751 21.018126 -61.771252
36.2775 21.100624 -61.80125
36.273125 21.184999 -61.833126
36.263126 21.27 -61.858749
36.261875 21.354376 -61.866875
36.263126 21.435625 -61.896252
36.260624 21.52 -61.911877
36.26125 21.605 -61.918751
36.263126 21.689375 -61.934376
36.256874 21.77125 -61.978127
36.255001 21.855 -62.018749
36.254375 21.939375 -62.026875
36.250626 22.020624 -62.044998
36.244999 22.105 -62.064999
36.241249 22.190001 -62.092499
36.240623 22.275 -62.104374
36.239376 22.360001 -62.110626
36.231251 22.444374 -62.138748
36.231251 22.526251 -62.158127
36.235001 22.610001 -62.171249
36.235001 22.695 -62.174999
36.235001 22.780001 -62.176876
36.235001 22.864374 -62.194374
36.233124 22.945625 -62.228127
36.23 23.030001 -62.25375
36.227501 23.115 -62.261875
36.220627 23.199375 -62.276249
36.219376 23.283751 -62.290627
36.214375 23.365625 -62.335625
36.210625 23.450001 -62.356876
36.210625 23.533751 -62.373123
36.206875 23.615625 -62.393124
36.206249 23.700001 -62.420624
36.209373 23.783751 -62.448124
36.205002 23.866249 -62.470001
36.201248 23.950001 -62.498123
36.200001 24.034374 -62.506248
36.197498 24.116249 -62.526875
36.200001 24.200624 -62.544376
36.200001 24.285625 -62.548752
36.196251 24.370625 -62.563126
36.195625 24.455626 -62.565624
36.195 24.540625 -62.569374
36.195 24.625626 -62.578751
36.192501 24.709999 -62.586876
36.188126 24.795 -62.596249
36.186874 24.879999 -62.598125
36.186249 24.965 -62.600624
36.181873 25.049999 -62.615002
36.180626 25.134375 -62.619373
36.176876 25.216875 -62.626877
36.17625 25.30125 -62.62875
36.177502 25.38625 -62.62875
36.18 25.473125 -62.625626
36.181252 25.559376 -62.621876
36.181873 25.643749 -62.623749
36.18375 25.725624 -62.633125
36.185001 25.810625 -62.633125
36.185001 25.895 -62.634998
36.185001 25.98 -62.634998
36.185001 26.065624 -62.633125
36.184376 26.150625 -62.634998
36.18375 26.23625 -62.633125
36.181252 26.32375 -62.625626
36.181252 26.409374 -62.621876
36.181873 26.495001 -62.619999
36.181873 26.58 -62.619999
36.181873 26.665001 -62.619999
36.180626 26.75 -62.615002
36.181252 26.834999 -62.612499
36.184376 26.92 -62.598751
36.185623 27.001249 -62.598125
36.188126 27.08625 -62.59
36.193127 27.174376 -62.568748
36.192501 27.26 -62.55125
36.193748 27.344999 -62.53875
36.195 27.430626 -62.535
36.195625 27.515625 -62.533127
36.195625 27.600624 -62.533127
36.195 27.686251 -62.53125
36.191875 27.774376 -62.516876
36.19125 27.860001 -62.496876
36.19125 27.945 -62.4925
36.191875 28.030624 -62.483124
36.195 28.119375 -62.471874
36.195625 28.205 -62.470001
36.195 28.290001 -62.463123
36.72625 17.945 -58.854374
36.716251 18.025 -58.943127
36.705002 18.105 -59.03125
36.69875 18.185625 -59.111252
36.693748 18.268749 -59.196251
36.6875 18.348749 -59.285
36.673126 18.42625 -59.389999
36.662498 18.505625 -59.494373
36.653751 18.584999 -59.592499
36.641251 18.666876 -59.685623
36.630001 18.749374 -59.77375
36.619373 18.83 -59.866875
36.605625 18.909374 -59.963749
36.59375 18.986876 -60.064999
36.586876 19.06625 -60.157501
36.584373 19.148125 -60.2575
36.575001 19.22625 -60.350624
36.5625 19.305626 -60.440624
36.55125 19.385626 -60.538124
36.541874 19.464375 -60.638126
36.537498 19.544374 -60.734375
36.529373 19.625 -60.825001
36.522499 19.708124 -60.912498
36.512501 19.786249 -61.004375
36.498749 19.865625 -61.086876
36.48 19.946251 -61.169376
36.463749 20.028749 -61.23875
36.448124 20.109375 -61.30875
36.435001 20.189375 -61.383751
36.426876 20.269375 -61.460625
36.426876 20.350624 -61.509377
36.423126 20.434999 -61.553749
36.415627 20.519375 -61.599998
36.409374 20.6 -61.650002
36.406876 20.681875 -61.691875
36.409374 20.764999 -61.715
36.405624 20.85 -61.730625
36.400623 20.934376 -61.751251
36.396873 21.016251 -61.776875
36.396252 21.1 -61.803123
36.393749 21.184999 -61.828751
36.385624 21.27 -61.849377
36.384377 21.354376 -61.857498
36.384998 21.435625 -61.889374
36.384998 21.52 -61.900002
36.387501 21.605 -61.91
36.388126 21.690001 -61.923126
36.380627 21.77375 -61.966251
36.380001 21.855625 -62.005001
36.379375 21.939375 -62.014999
36.374374 22.02125 -62.043125
36.366875 22.105 -62.072498
36.364376 22.190001 -62.093124
36.364376 22.275 -62.096874
36.361874 22.360001 -62.103127
36.356251 22.445 -62.129375
36.355625 22.528749 -62.145
36.358749 22.61125 -62.155624
36.360001 22.695625 -62.159374
36.360001 22.780001 -62.1675
36.358749 22.864374 -62.192501
36.355625 22.945625 -62.231876
36.350624 23.030001 -62.255627
36.348751 23.115 -62.259998
36.342499 23.200001 -62.276249
36.343124 23.283751 -62.294376
36.341873 23.365625 -62.333126
36.337502 23.450001 -62.353127
36.338123 23.534374 -62.368752
36.335625 23.616249 -62.386875
36.336876 23.700001 -62.404999
36.336876 23.785 -62.415001
36.330624 23.86875 -62.439999
36.328125 23.95125 -62.468124
36.326874 24.035 -62.47625
36.32375 24.119375 -62.491875
36.325001 24.204374 -62.517502
36.324375 24.289375 -62.52375
36.32 24.374374 -62.537498
36.319374 24.459375 -62.539375
36.319374 24.544374 -62.539375
36.317501 24.628124 -62.547501
36.313126 24.710625 -62.566875
36.313126 24.795 -62.580624
36.314377 24.879999 -62.584999
36.313126 24.965 -62.586876
36.306873 25.049999 -62.598751
36.305 25.135 -62.603127
36.301876 25.219376 -62.615002
36.301876 25.303749 -62.619373
36.304375 25.38625 -62.62875
36.306252 25.471874 -62.626877
36.308125 25.559376 -62.621876
36.308125 25.643749 -62.623749
36.306252 25.725624 -62.633125
36.305626 25.809999 -62.634998
36.305626 25.895624 -62.633125
36.305 25.98 -62.634998
36.304375 26.065001 -62.636875
36.301876 26.15 -62.646252
36.30125 26.235001 -62.648125
36.30125 26.320625 -62.644375
36.304375 26.40625 -62.634998
36.308125 26.49375 -62.623749
36.30875 26.579374 -62.621876
36.30875 26.665001 -62.6175
36.306252 26.75 -62.605
36.305626 26.834999 -62.602501
36.306873 26.919374 -62.601875
36.310001 27.000626 -62.607498
36.313751 27.085625 -62.598125
36.319374 27.174376 -62.575626
36.318748 27.26 -62.566875
36.31625 27.344999 -62.553123
36.31625 27.43 -62.548752
36.318748 27.514999 -62.541248
36.319374 27.6 -62.535
36.319374 27.685625 -62.533127
36.318748 27.774376 -62.515625
36.319374 27.860001 -62.481876
36.319374 27.945 -62.475624
36.319374 28.030624 -62.473751
36.32 28.11875 -62.471874
36.32 28.204374 -62.473751
36.320625 28.290001 -62.467499
36.320625 28.375 -62.453125
36.849377 18.110001 -58.921249
36.841251 18.19125 -58.999374
36.834999 18.274376 -59.088749
36.829376 18.355 -59.17625
36.822498 18.434376 -59.268749
36.811249 18.51375 -59.375626
36.793125 18.591875 -59.487499
36.778751 18.67375 -59.578125
36.764999 18.754999 -59.669376
36.750626 18.834999 -59.775002
36.741875 18.915001 -59.875
36.735626 18.99375 -59.976875
36.724998 19.070625 -60.081249
36.717499 19.150625 -60.186874
36.705624 19.23 -60.279373
36.693748 19.309999 -60.376877
36.681252 19.389376 -60.484375
36.669376 19.466249 -60.588123
36.661251 19.545626 -60.686249
36.651875 19.626249 -60.782501
36.646252 19.709999 -60.873123
36.635624 19.789375 -60.970001
36.623123 19.869375 -61.058125
36.605625 19.949375 -61.146252
36.587502 20.030001 -61.213123
36.572498 20.110001 -61.278751
36.558125 20.190001 -61.34375
36.548752 20.27 -61.43
36.5425 20.350624 -61.515625
36.53875 20.434999 -61.563751
36.533749 20.519375 -61.603748
36.528126 20.600624 -61.650002
36.529999 20.683125 -61.688126
36.533127 20.765625 -61.713123
36.530624 20.85 -61.730625
36.525623 20.934376 -61.753124
36.521873 21.016251 -61.778751
36.52 21.1 -61.80875
36.515625 21.185625 -61.828751
36.508125 21.27 -61.845001
36.506874 21.354376 -61.853127
36.506874 21.436251 -61.887501
36.506248 21.52 -61.895
36.5075 21.605 -61.900002
36.508751 21.690001 -61.916248
36.503124 21.774376 -61.958126
36.504375 21.855625 -61.991249
36.504375 21.940001 -62.003124
36.498749 22.023125 -62.033127
36.490002 22.105625 -62.065624
36.486252 22.190001 -62.088749
36.483749 22.275 -62.098751
36.479374 22.360001 -62.108749
36.479374 22.445 -62.125
36.479374 22.530001 -62.131248
36.481251 22.614374 -62.133751
36.483749 22.698126 -62.147499
36.483749 22.780624 -62.168751
36.479374 22.864374 -62.192501
36.477501 22.946251 -62.22625
36.471874 23.030001 -62.263748
36.470001 23.115 -62.271873
36.464375 23.199375 -62.286251
36.46125 23.281876 -62.30125
36.461876 23.365625 -62.321251
36.464375 23.450001 -62.341251
36.464375 23.535 -62.356876
36.459999 23.61875 -62.375
36.456875 23.700624 -62.39875
36.455624 23.785 -62.406876
36.451248 23.870001 -62.431873
36.446251 23.953751 -62.453751
36.442501 24.036249 -62.466251
36.442501 24.120001 -62.478127
36.447498 24.205 -62.502499
36.447498 24.290001 -62.510624
36.441875 24.375 -62.529373
36.440624 24.459999 -62.533127
36.439999 24.544374 -62.535
36.436874 24.626875 -62.544376
36.435001 24.710625 -62.550625
36.435623 24.795 -62.556873
36.438751 24.879999 -62.569374
36.438751 24.965 -62.57375
36.434376 25.049999 -62.584999
36.43375 25.135 -62.586876
36.433125 25.219999 -62.589375
36.433125 25.305 -62.593124
36.43375 25.389376 -62.602501
36.433125 25.474375 -62.606876
36.430626 25.559376 -62.619373
36.43 25.641251 -62.631248
36.429375 25.725 -62.634998
36.429375 25.810625 -62.633125
36.428749 25.897499 -62.627499
36.42625 25.980625 -62.633125
36.425625 26.065001 -62.636875
36.424999 26.15 -62.646252
36.424374 26.235001 -62.650002
36.424999 26.32 -62.6525
36.42625 26.405001 -62.64875
36.43 26.490625 -62.636875
36.431252 26.57625 -62.633125
36.434376 26.66375 -62.62125
36.43375 26.75 -62.605
36.43375 26.834999 -62.602501
36.433125 26.919374 -62.604374
36.43375 27.000626 -62.606251
36.436249 27.085625 -62.599998
36.442501 27.17375 -62.586876
36.443127 27.259375 -62.583126
36.440624 27.344999 -62.571251
36.439999 27.43 -62.564999
36.440624 27.514999 -62.55875
36.439999 27.6 -62.539375
36.440624 27.686251 -62.53125
36.44125 27.774376 -62.514999
36.443748 27.860001 -62.489376
36.444374 27.945 -62.485001
36.445 28.030001 -62.483124
36.445 28.115625 -62.485001
36.445625 28.20125 -62.48875
36.448124 28.28875 -62.475624
36.44875 28.375 -62.467499
36.44875 28.459999 -62.467499
36.976875 18.280624 -58.964375
36.968124 18.360001 -59.064377
36.963749 18.440001 -59.161251
36.953125 18.52 -59.264999
36.93375 18.598749 -59.37875
36.916874 18.68 -59.478748
36.900002 18.76 -59.584373
36.884998 18.84 -59.686249
36.877499 18.92 -59.788124
36.869999 18.999374 -59.894375
36.856251 19.075624 -60.014374
36.845001 19.155001 -60.120625
36.834373 19.235001 -60.21125
36.824375 19.315001 -60.309376
36.8125 19.394375 -60.413124
36.798126 19.470625 -60.518749
36.789375 19.549999 -60.613125
36.780624 19.630625 -60.715626
36.775623 19.713125 -60.815624
36.761875 19.79125 -60.923126
36.747501 19.870625 -61.02375
36.733124 19.950001 -61.123123
36.715 20.030001 -61.216251
36.697498 20.110001 -61.295624
36.683125 20.190001 -61.346249
36.672501 20.27 -61.421249
36.661251 20.350624 -61.502499
36.654373 20.435625 -61.559376
36.651249 20.519375 -61.611252
36.650002 20.6 -61.66375
36.653751 20.68125 -61.697498
36.656876 20.764999 -61.715
36.658127 20.85 -61.730625
36.655624 20.934999 -61.754375
36.653751 21.018749 -61.766876
36.650002 21.101875 -61.794998
36.645626 21.188126 -61.814999
36.640625 21.27125 -61.828751
36.639374 21.355 -61.841251
36.638126 21.438749 -61.877499
36.634998 21.52125 -61.891251
36.633751 21.605 -61.895
36.633751 21.690001 -61.904373
36.629375 21.774376 -61.938126
36.629375 21.855625 -61.979374
36.627499 21.939375 -62.008751
36.619999 22.02125 -62.043125
36.611874 22.105 -62.070625
36.608749 22.190001 -62.085625
36.606251 22.275 -62.100624
36.603748 22.360001 -62.108124
36.603748 22.445 -62.115002
36.602501 22.530001 -62.12875
36.604374 22.614374 -62.139374
36.605625 22.696875 -62.150623
36.603127 22.780624 -62.163124
36.594376 22.865 -62.186249
36.594376 22.94875 -62.209999
36.594376 23.030624 -62.249374
36.593124 23.115 -62.259998
36.586876 23.200001 -62.27375
36.581875 23.284374 -62.290001
36.584999 23.36875 -62.309376
36.591251 23.450624 -62.337502
36.589375 23.535 -62.355
36.584373 23.619375 -62.370625
36.580002 23.700624 -62.389374
36.578751 23.785 -62.397499
36.577499 23.870001 -62.419998
36.570625 23.955 -62.440624
36.56625 24.03875 -62.458126
36.564999 24.120625 -62.48
36.56625 24.205 -62.5
36.56625 24.290001 -62.504375
36.565624 24.375 -62.518124
36.565624 24.459999 -62.52
36.564999 24.545 -62.521873
36.561874 24.629375 -62.53125
36.559376 24.713751 -62.536877
36.556873 24.796249 -62.548752
36.55875 24.879999 -62.564999
36.559376 24.965 -62.571877
36.556252 25.049999 -62.581249
36.555626 25.135 -62.583126
36.555626 25.219999 -62.586876
36.555626 25.305 -62.594376
36.555626 25.389999 -62.598125
36.553749 25.475 -62.602501
36.550625 25.559376 -62.616875
36.550625 25.641251 -62.631248
36.550625 25.725624 -62.633125
36.550625 25.810625 -62.633125
36.550625 25.89625 -62.631248
36.549999 25.980625 -62.633125
36.550625 26.065624 -62.630627
36.549999 26.150625 -62.634377
36.548126 26.235001 -62.64875
36.549374 26.32 -62.662498
36.550625 26.405001 -62.662498
36.553749 26.49 -62.650623
36.555 26.575001 -62.646252
36.557499 26.661249 -62.634998
36.555 26.748751 -62.62125
36.553749 26.834375 -62.62125
36.55125 26.919374 -62.62875
36.551876 27.000626 -62.625626
36.555 27.084999 -62.61375
36.560001 27.170626 -62.599998
36.561249 27.25625 -62.596249
36.563751 27.344376 -62.578751
36.564377 27.43 -62.556873
36.563751 27.514999 -62.550625
36.561874 27.600624 -62.536877
36.564377 27.688126 -62.523125
36.564377 27.775 -62.5075
36.564999 27.860001 -62.500626
36.565624 27.945 -62.498749
36.568127 28.030001 -62.491249
36.569374 28.115 -62.486874
36.570625 28.200001 -62.486874
36.570625 28.286875 -62.479374
36.57 28.373751 -62.473751
36.57 28.45875 -62.473751
37.114376 18.366249 -58.966251
37.104374 18.445 -59.075001
37.09 18.524376 -59.185623
37.071251 18.601875 -59.299999
37.056873 18.684376 -59.391876
37.040627 18.764999 -59.4925
37.025623 18.844999 -59.586876
37.012501 18.924999 -59.691875
37.003124 19.00375 -59.806252
36.98875 19.080626 -59.924374
36.971874 19.16 -60.036251
36.960625 19.24 -60.13625
36.950001 19.32 -60.23875
36.940624 19.399376 -60.33625
36.929375 19.47625 -60.438126
36.918751 19.555 -60.544998
36.90625 19.634375 -60.666874
36.901249 19.715626 -60.771252
36.891876 19.795 -60.876877
36.877499 19.873751 -60.990002
36.861252 19.950624 -61.105
36.844376 20.030001 -61.214375
36.825626 20.110001 -61.310001
36.810001 20.190001 -61.369373
36.803123 20.27 -61.435001
36.793125 20.35125 -61.498749
36.784374 20.4375 -61.544376
36.776875 20.52 -61.604374
36.77375 20.600624 -61.665001
36.7775 20.68125 -61.701248
36.783749 20.765625 -61.71125
36.785625 20.85 -61.71875
36.784374 20.934999 -61.735001
36.783749 21.02 -61.741249
36.780624 21.104376 -61.767502
36.778126 21.190001 -61.796875
36.774376 21.27375 -61.814999
36.77 21.356251 -61.842499
36.765625 21.440001 -61.872501
36.760624 21.52375 -61.881874
36.756874 21.606251 -61.893749
36.755627 21.690001 -61.91375
36.753124 21.774376 -61.941875
36.750626 21.856251 -61.974998
36.74625 21.939375 -62.008751
36.740623 22.02125 -62.040627
36.735001 22.105 -62.061249
36.731876 22.190001 -62.077499
36.73 22.275 -62.085625
36.726875 22.360001 -62.096874
36.726875 22.445 -62.110626
36.728127 22.530001 -62.130627
36.729374 22.615 -62.136875
36.728127 22.699375 -62.133125
36.723751 22.783751 -62.145
36.715 22.865625 -62.172501
36.713123 22.949375 -62.194374
36.714375 23.03125 -62.233124
36.715 23.115 -62.249374
36.712502 23.200001 -62.256248
36.706875 23.285 -62.275623
36.706249 23.369375 -62.303749
36.710625 23.45125 -62.333126
36.709999 23.535 -62.350624
36.704376 23.619375 -62.368752
36.700001 23.700624 -62.389374
36.697498 23.785 -62.401249
36.69875 23.870001 -62.422501
36.695 23.955 -62.445625
36.693127 24.039375 -62.454376
36.689999 24.12125 -62.470001
36.689999 24.205 -62.488125
36.690624 24.290001 -62.4925
36.693127 24.375 -62.504375
36.693748 24.459999 -62.506874
36.694374 24.545 -62.504375
36.691875 24.629999 -62.510624
36.685001 24.715 -62.521873
36.679375 24.798124 -62.53875
36.677502 24.880625 -62.553123
36.679375 24.965 -62.564999
36.68 25.049999 -62.571877
36.679375 25.135 -62.575626
36.679375 25.219999 -62.583126
36.679375 25.305 -62.586876
36.678123 25.389999 -62.588749
36.671875 25.475 -62.598125
36.670624 25.559999 -62.605
36.673752 25.644375 -62.619373
36.674374 25.729376 -62.621876
36.674999 25.813749 -62.623749
36.674999 25.89875 -62.623749
36.675625 25.983749 -62.62125
36.679375 26.069374 -62.606876
36.679375 26.153749 -62.611252
36.677502 26.235624 -62.634377
36.675625 26.32 -62.64875
36.674999 26.405001 -62.650623
36.675625 26.49 -62.648125
36.675625 26.575001 -62.648125
36.674999 26.66 -62.646252
36.671249 26.745625 -62.634998
36.670624 26.831249 -62.633125
36.670624 26.918751 -62.6325
36.674374 27.000626 -62.622501
36.67625 27.084999 -62.615623
36.678749 27.17 -62.603748
36.68 27.255625 -62.598125
36.68375 27.344376 -62.575001
36.685001 27.43 -62.555
36.685001 27.514999 -62.552502
36.684376 27.6 -62.546249
36.6875 27.686251 -62.533127
36.685623 27.77375 -62.521252
36.685001 27.860001 -62.517502
36.685001 27.945 -62.517502
36.686249 28.030001 -62.513126
36.690624 28.115 -62.498749
36.695625 28.200624 -62.486874
36.694374 28.288124 -62.475624
36.69125 28.371876 -62.479374
36.69125 28.456875 -62.479374
37.241875 18.450624 -58.974377
37.22625 18.529375 -59.092499
37.205624 18.606874 -59.213123
37.189377 18.689375 -59.310623
37.174374 18.77 -59.419998
37.158749 18.85 -59.516251
37.145626 18.929375 -59.608124
37.134998 19.006874 -59.717499
37.119999 19.084999 -59.826874
37.102501 19.165625 -59.938126
37.090626 19.245625 -60.040627
37.077499 19.325001 -60.150002
37.069374 19.405001 -60.2425
37.05875 19.483749 -60.346874
37.045624 19.559999 -60.470627
37.033749 19.637501 -60.598751
37.028126 19.719376 -60.7075
37.016876 19.799376 -60.818748
37.002499 19.875626 -60.948124
36.989376 19.95125 -61.076874
36.974998 20.030624 -61.189377
36.960625 20.110001 -61.296249
36.947498 20.190001 -61.375
36.941875 20.270624 -61.442501
36.934376 20.350624 -61.508125
36.923126 20.436251 -61.548752
36.912498 20.52 -61.59375
36.910625 20.60375 -61.616875
36.911251 20.685625 -61.651875
36.914375 20.768749 -61.681873
36.914375 20.85125 -61.711876
36.911251 20.934999 -61.73875
36.910625 21.02 -61.743126
36.908749 21.105 -61.753124
36.905624 21.190001 -61.776875
36.903126 21.275 -61.78875
36.900002 21.358749 -61.817501
36.895 21.440624 -61.848751
36.890625 21.525 -61.865002
36.88625 21.608749 -61.8825
36.884998 21.690624 -61.91
36.885624 21.775 -61.93
36.879375 21.858749 -61.951874
36.870625 21.940624 -61.993126
36.865623 22.02375 -62.026875
36.860626 22.106251 -62.047501
36.858749 22.190624 -62.073124
36.858124 22.275625 -62.079376
36.854374 22.360001 -62.093124
36.853127 22.445 -62.112499
36.850624 22.530001 -62.138126
36.849998 22.614374 -62.141251
36.846249 22.700001 -62.130627
36.841251 22.784374 -62.138748
36.837502 22.866249 -62.156876
36.837502 22.950001 -62.178749
36.83625 23.033751 -62.208126
36.83625 23.115625 -62.225624
36.835625 23.200001 -62.234375
36.833126 23.285 -62.259998
36.831249 23.370001 -62.289375
36.833752 23.453125 -62.311249
36.8325 23.535625 -62.326874
36.82375 23.619375 -62.354374
36.82 23.70125 -62.381248
36.82 23.785625 -62.393124
36.82 23.870001 -62.416248
36.814999 23.955 -62.4375
36.813751 24.040001 -62.441875
36.810623 24.123125 -62.462502
36.813126 24.205626 -62.493752
36.814377 24.290001 -62.501877
36.814999 24.375 -62.504375
36.815624 24.459999 -62.501877
36.818127 24.545 -62.4925
36.814377 24.629999 -62.50375
36.805626 24.714375 -62.521873
36.80125 24.796875 -62.5425
36.799999 24.880625 -62.548126
36.80125 24.965626 -62.553123
36.803749 25.050625 -62.566875
36.80125 25.135 -62.579376
36.80125 25.219999 -62.584999
36.80125 25.305 -62.584999
36.799999 25.389999 -62.586876
36.7925 25.475 -62.598125
36.791874 25.559999 -62.602501
36.794998 25.645 -62.615002
36.796249 25.729376 -62.619373
36.798752 25.811874 -62.62875
36.799374 25.89625 -62.630627
36.800625 25.981874 -62.626251
36.806252 26.069374 -62.606876
36.803749 26.154375 -62.616249
36.800625 26.23625 -62.630627
36.799374 26.320625 -62.634377
36.798752 26.405001 -62.636875
36.798752 26.49 -62.636875
36.798126 26.575001 -62.638748
36.794998 26.66 -62.644375
36.791248 26.745625 -62.634377
36.790627 26.831249 -62.6325
36.7925 26.918751 -62.630627
36.798126 27.000626 -62.630001
36.798752 27.084999 -62.627499
36.796875 27.17 -62.61375
36.796875 27.255625 -62.607498
36.800625 27.34375 -62.586876
36.805 27.43 -62.571251
36.804375 27.514999 -62.564999
36.803123 27.6 -62.550625
36.806252 27.684999 -62.536877
36.805626 27.771875 -62.529373
36.805 27.858749 -62.52375
36.805 27.944374 -62.521873
36.806252 28.030001 -62.514999
36.810623 28.115 -62.500626
36.8125 28.20125 -62.490623
36.814377 28.289375 -62.473751
36.814999 28.374374 -62.469376
36.815624 28.459375 -62.466873
37.334373 18.614374 -59.108124
37.317501 18.695 -59.221874
37.30875 18.775 -59.334373
37.297501 18.855 -59.421875
37.283749 18.934999 -59.5075
37.268749 19.01375 -59.612499
37.254375 19.091875 -59.724377
37.239376 19.17375 -59.834373
37.228127 19.25375 -59.928123
37.211876 19.330626 -60.040627
37.200001 19.41 -60.145
37.186874 19.489374 -60.258751
37.17625 19.565624 -60.376877
37.168125 19.644375 -60.493126
37.16 19.725 -60.607498
37.148125 19.804375 -60.720001
37.134998 19.880625 -60.856251
37.120625 19.956249 -61
37.107498 20.034374 -61.133125
37.099377 20.11125 -61.250626
37.093124 20.19125 -61.333126
37.088749 20.273125 -61.403126
37.083126 20.352501 -61.478748
37.073124 20.438126 -61.530624
37.060001 20.52125 -61.583126
37.054375 20.605 -61.599377
37.049999 20.688749 -61.619373
37.045624 20.770624 -61.645
37.044376 20.85375 -61.68
37.040001 20.936251 -61.7075
37.03875 21.020624 -61.716873
37.035 21.105625 -61.732498
37.029999 21.190001 -61.761875
37.028126 21.275 -61.778126
37.028751 21.359375 -61.799999
37.025623 21.44125 -61.826874
37.024376 21.525625 -61.846249
37.018749 21.609375 -61.868126
37.01125 21.690624 -61.895626
37.009377 21.775 -61.915627
37.00375 21.859375 -61.935623
36.99625 21.94125 -61.976875
36.993126 22.025 -62.008751
36.986252 22.109375 -62.029999
36.982498 22.194374 -62.054375
36.980625 22.278749 -62.0625
36.97625 22.36125 -62.080002
36.974377 22.445 -62.106251
36.971874 22.529375 -62.139999
36.973125 22.612499 -62.150623
36.969376 22.69875 -62.140625
36.965626 22.785 -62.130627
36.963749 22.86875 -62.137501
36.961876 22.950624 -62.169998
36.960625 23.034374 -62.201248
36.963123 23.116249 -62.219376
36.959999 23.200001 -62.236874
36.956875 23.285 -62.264999
36.955002 23.369375 -62.28875
36.955624 23.451876 -62.3125
36.955002 23.535625 -62.32
36.94875 23.620001 -62.33625
36.943127 23.704374 -62.358749
36.944374 23.78875 -62.375
36.942501 23.870625 -62.41
36.93375 23.955 -62.442501
36.931252 24.039375 -62.450626
36.928123 24.12125 -62.467499
36.931252 24.205626 -62.485626
36.934376 24.290001 -62.496876
36.935001 24.375 -62.498749
36.935623 24.459999 -62.496876
36.9375 24.545 -62.490623
36.932499 24.629999 -62.50375
36.925625 24.715 -62.519375
36.924374 24.799376 -62.535
36.924999 24.884375 -62.535
36.92625 24.969376 -62.53875
36.928123 25.053749 -62.553123
36.925625 25.135626 -62.571251
36.928123 25.219999 -62.583126
36.928749 25.305 -62.584999
36.928123 25.389999 -62.584999
36.921875 25.475 -62.594376
36.920624 25.559999 -62.596249
36.921249 25.645 -62.598751
36.921249 25.73 -62.600624
36.920624 25.814375 -62.61375
36.920624 25.899376 -62.615623
36.921249 25.984375 -62.61375
36.924374 26.07 -62.603748
36.921875 26.155001 -62.611874
36.920624 26.23875 -62.619999
36.919998 26.323126 -62.622501
36.9175 26.405624 -62.6325
36.916874 26.49 -62.634998
36.916874 26.575001 -62.634998
36.915627 26.661249 -62.631874
36.915627 26.748751 -62.618126
36.916248 26.834375 -62.61375
36.918751 26.919374 -62.608124
36.920624 27.000626 -62.61375
36.920624 27.084999 -62.61375
36.920624 27.170626 -62.601875
36.919376 27.254999 -62.601875
36.921249 27.341249 -62.596249
36.926876 27.428749 -62.584999
36.926876 27.514999 -62.571251
36.928749 27.6 -62.550625
36.932499 27.685625 -62.535
36.93 27.772499 -62.5275
36.92625 27.856874 -62.529373
36.92625 27.941875 -62.526875
36.93 28.029375 -62.505001
36.936249 28.115625 -62.486874
36.935001 28.203125 -62.477501
36.935623 28.289375 -62.469376
36.938751 28.375 -62.4575
36.939999 28.459999 -62.450626
37.446251 18.700001 -59.126251
37.438126 18.780001 -59.233749
37.429375 18.860624 -59.311874
37.414375 18.940001 -59.41
37.397499 19.02 -59.521873
37.384998 19.099375 -59.626877
37.37125 19.18 -59.72625
37.362499 19.259375 -59.818748
37.348125 19.335625 -59.940624
37.333126 19.415001 -60.05875
37.318127 19.49375 -60.177502
37.308125 19.570625 -60.28875
37.299374 19.65 -60.395
37.28875 19.73 -60.51125
37.276249 19.809999 -60.625
37.267502 19.888124 -60.751251
37.255001 19.964375 -60.898125
37.243752 20.040001 -61.05125
37.235626 20.115625 -61.188126
37.231251 20.195625 -61.279373
37.228748 20.276251 -61.352501
37.22625 20.356251 -61.424999
37.223125 20.440624 -61.474377
37.214375 20.52375 -61.53125
37.201874 20.606251 -61.569374
37.189999 20.690001 -61.599998
37.179375 20.77125 -61.620625
37.174374 20.855625 -61.63625
37.166874 20.940001 -61.657501
37.163124 21.025 -61.681873
37.159374 21.109375 -61.706875
37.155624 21.19125 -61.73875
37.157501 21.275625 -61.758125
37.158749 21.360001 -61.776875
37.155624 21.444374 -61.796249
37.15625 21.528126 -61.821251
37.14875 21.610001 -61.856251
37.136875 21.69125 -61.887501
37.130627 21.775 -61.907501
37.125626 21.860001 -61.92625
37.120625 21.94375 -61.959373
37.118752 22.025625 -61.98875
37.114376 22.110001 -62.006874
37.113125 22.195 -62.026249
37.108749 22.280001 -62.040627
37.099998 22.36375 -62.05875
37.096249 22.445625 -62.084999
37.094376 22.530001 -62.125
37.09375 22.613125 -62.144375
37.090626 22.696875 -62.149376
37.089375 22.783751 -62.141876
37.09 22.86875 -62.143749
37.088749 22.950624 -62.161877
37.08625 23.035 -62.19125
37.088123 23.118126 -62.208752
37.084999 23.200624 -62.227501
37.0825 23.285 -62.256248
37.080002 23.370001 -62.275002
37.079376 23.454374 -62.302502
37.078751 23.53875 -62.30875
37.075001 23.62125 -62.322498
37.070625 23.705 -62.349998
37.069374 23.789375 -62.372501
37.06625 23.870625 -62.415627
37.061249 23.955 -62.442501
37.060001 24.039375 -62.44875
37.055626 24.121876 -62.463123
37.055 24.208124 -62.471249
37.055626 24.29125 -62.483124
37.055626 24.375 -62.48875
37.055 24.459999 -62.490623
37.050625 24.545 -62.501251
37.044376 24.629999 -62.514999
37.0425 24.715 -62.521873
37.046249 24.799999 -62.53125
37.049999 24.885 -62.5275
37.052502 24.969999 -62.535
37.049999 25.054375 -62.550625
37.046249 25.135626 -62.569374
37.048752 25.219999 -62.583126
37.049999 25.305 -62.583126
37.053749 25.390625 -62.571251
37.052502 25.475 -62.57375
37.052502 25.559999 -62.57375
37.053123 25.645 -62.575626
37.051876 25.73 -62.579376
37.046875 25.815001 -62.596249
37.045624 25.9 -62.601875
37.044998 25.985001 -62.603748
37.044998 26.069374 -62.604374
37.044376 26.153749 -62.610626
37.044998 26.236876 -62.625626
37.044998 26.321251 -62.630001
37.043751 26.405001 -62.634998
37.043751 26.49 -62.634998
37.043125 26.575624 -62.6325
37.041248 26.663124 -62.620625
37.043125 26.749374 -62.608124
37.044376 26.834999 -62.603748
37.044998 26.919374 -62.601875
37.044998 27.000626 -62.603748
37.045624 27.085625 -62.601875
37.046249 27.172501 -62.592499
37.041874 27.25625 -62.596249
37.041248 27.340626 -62.598125
37.046249 27.426874 -62.592499
37.048752 27.514376 -62.578751
37.05125 27.6 -62.550625
37.054375 27.684999 -62.536877
37.053749 27.77125 -62.53125
37.05125 27.858126 -62.525623
37.050625 27.944374 -62.519375
37.051876 28.030001 -62.500626
37.056252 28.115 -62.486874
37.055626 28.20125 -62.481251
37.056252 28.286875 -62.476875
37.059376 28.374374 -62.464375
37.060623 28.459999 -62.450626
37.563126 18.786249 -59.129375
37.559376 18.868126 -59.208126
37.544998 18.945625 -59.321877
37.529999 19.025 -59.436249
37.518124 19.105 -59.538124
37.501251 19.184999 -59.638126
37.490002 19.264376 -59.7425
37.474377 19.340626 -59.860626
37.456249 19.419374 -59.98
37.438751 19.49625 -60.103127
37.431252 19.575001 -60.21125
37.423752 19.655001 -60.311249
37.414375 19.735624 -60.424999
37.400623 19.814375 -60.543125
37.393124 19.891251 -60.676876
37.383751 19.969376 -60.821877
37.375 20.045626 -60.9575
37.37125 20.122499 -61.08625
37.368126 20.203751 -61.194374
37.366249 20.284374 -61.278126
37.366875 20.364374 -61.349377
37.363125 20.445 -61.409374
37.355 20.526251 -61.467499
37.3475 20.610001 -61.498123
37.335625 20.69375 -61.529373
37.322498 20.775625 -61.552502
37.310623 20.860001 -61.5825
37.296249 20.945 -61.619373
37.285 21.030001 -61.64875
37.280624 21.11375 -61.664375
37.276875 21.195625 -61.696251
37.280624 21.278749 -61.72625
37.282501 21.36125 -61.755001
37.279373 21.444374 -61.778126
37.278126 21.526875 -61.817501
37.27375 21.610001 -61.848125
37.264999 21.69375 -61.87125
37.256248 21.776251 -61.891251
37.25 21.860001 -61.910625
37.245625 21.944374 -61.943127
37.241249 22.025625 -61.974377
37.237499 22.110001 -61.991875
37.23875 22.195 -62.010624
37.233749 22.280001 -62.029999
37.2225 22.36375 -62.060001
37.220001 22.445625 -62.091873
37.216251 22.529375 -62.131874
37.211876 22.611876 -62.149376
37.210625 22.695625 -62.153126
37.211876 22.780624 -62.154999
37.215 22.865625 -62.164375
37.215 22.950001 -62.172501
37.210625 23.034374 -62.200626
37.210625 23.116249 -62.21875
37.206249 23.200001 -62.23875
37.201248 23.285 -62.264374
37.200001 23.370001 -62.274376
37.200626 23.455 -62.298752
37.200001 23.540001 -62.305
37.199375 23.623751 -62.310623
37.198124 23.705626 -62.334373
37.196251 23.789375 -62.360001
37.193748 23.870625 -62.41
37.193748 23.955 -62.423752
37.192501 24.040001 -62.425625
37.186249 24.124374 -62.4375
37.181252 24.209999 -62.451248
37.18 24.293751 -62.470627
37.180626 24.376249 -62.490623
37.179375 24.460625 -62.496876
37.172501 24.545 -62.512501
37.169998 24.629999 -62.52
37.170624 24.715 -62.521873
37.173752 24.799999 -62.53125
37.174999 24.885 -62.53125
37.174999 24.969999 -62.536877
37.172501 25.054375 -62.548752
37.1675 25.13625 -62.564999
37.166874 25.220625 -62.578751
37.168125 25.30625 -62.576248
37.173126 25.393126 -62.559376
37.171249 25.475624 -62.567501
37.171875 25.559999 -62.57375
37.174374 25.645 -62.583126
37.174999 25.73 -62.584999
37.173752 25.815001 -62.590626
37.173126 25.9 -62.599998
37.169998 25.984375 -62.611874
37.166874 26.066875 -62.623749
37.166874 26.151875 -62.623749
37.169376 26.23875 -62.619999
37.169376 26.32375 -62.618126
37.166248 26.40625 -62.630001
37.165627 26.490625 -62.6325
37.165627 26.575624 -62.6325
37.165001 26.660625 -62.6325
37.166248 26.74625 -62.628124
37.168751 26.83375 -62.618126
37.169998 26.919374 -62.613125
37.169998 27.000626 -62.611252
37.169376 27.084999 -62.609375
37.1675 27.171875 -62.596249
37.164375 27.258125 -62.590626
37.165627 27.344376 -62.583126
37.169376 27.429375 -62.573124
37.171249 27.514999 -62.564999
37.173752 27.6 -62.543125
37.174999 27.684999 -62.535
37.17625 27.770624 -62.533127
37.178749 27.856874 -62.526875
37.179375 27.944374 -62.516876
37.18 28.030001 -62.498749
37.183125 28.116249 -62.483124
37.180626 28.203751 -62.46875
37.18 28.289375 -62.456875
37.180626 28.375 -62.452499
37.181252 28.459999 -62.448124
37.184376 28.545 -62.438751
37.693127 18.874374 -59.088749
37.67625 18.95125 -59.218124
37.661251 19.030001 -59.33625
37.650002 19.110001 -59.438126
37.6325 19.190001 -59.544376
37.619373 19.269375 -59.668125
37.601875 19.345625 -59.78875
37.584999 19.424376 -59.906876
37.567501 19.500626 -60.025002
37.559376 19.58 -60.134998
37.548126 19.660625 -60.228748
37.53875 19.743126 -60.338749
37.52375 19.820625 -60.458126
37.513748 19.89625 -60.601875
37.506248 19.975624 -60.743126
37.501877 20.054375 -60.864376
37.505001 20.133125 -60.97625
37.5 20.210625 -61.096249
37.498123 20.290001 -61.193127
37.498123 20.370001 -61.26125
37.493752 20.450001 -61.319374
37.486874 20.53125 -61.376251
37.486252 20.614374 -61.416248
37.47625 20.696251 -61.459999
37.460625 20.780001 -61.495625
37.449375 20.865 -61.523125
37.435001 20.950001 -61.549999
37.421249 21.034374 -61.576874
37.410625 21.116249 -61.610626
37.403751 21.19875 -61.65625
37.404373 21.28125 -61.689999
37.400623 21.364374 -61.720001
37.396252 21.446251 -61.75
37.392502 21.528749 -61.801876
37.393124 21.61125 -61.834373
37.390625 21.695 -61.849998
37.3825 21.778749 -61.875
37.375 21.860624 -61.899376
37.373123 21.944374 -61.938126
37.369999 22.026251 -61.970627
37.365623 22.110001 -61.9925
37.363125 22.195 -62.02
37.356876 22.279375 -62.044376
37.3475 22.36125 -62.079376
37.348751 22.445 -62.103748
37.344376 22.530001 -62.126251
37.336876 22.614374 -62.139999
37.33625 22.69875 -62.143749
37.339375 22.780624 -62.154999
37.343124 22.865 -62.166248
37.341873 22.950001 -62.174374
37.33625 23.034374 -62.202499
37.336876 23.115625 -62.223125
37.331875 23.200001 -62.243126
37.322498 23.285 -62.266251
37.321251 23.370001 -62.272499
37.323124 23.455 -62.293125
37.320625 23.539375 -62.305
37.32 23.623751 -62.30875
37.321251 23.705626 -62.32375
37.321877 23.789375 -62.346874
37.318127 23.87125 -62.395626
37.32 23.955 -62.41375
37.320625 24.040001 -62.415627
37.317501 24.125 -62.421875
37.310623 24.209999 -62.435001
37.306873 24.295 -62.453125
37.30875 24.379375 -62.46875
37.308125 24.463751 -62.474998
37.30125 24.546249 -62.497501
37.299374 24.629999 -62.514999
37.299374 24.715 -62.517502
37.299999 24.799999 -62.519375
37.299999 24.885 -62.521252
37.30125 24.969999 -62.53125
37.305626 25.055 -62.532501
37.299374 25.139376 -62.539375
37.294998 25.224375 -62.550625
37.294376 25.30875 -62.556873
37.294998 25.393749 -62.555
37.290627 25.475624 -62.573124
37.2925 25.559999 -62.584999
37.293751 25.645 -62.598125
37.294998 25.73 -62.598125
37.294998 25.815001 -62.598125
37.294998 25.9 -62.601875
37.294998 25.985001 -62.601875
37.293751 26.069374 -62.606251
37.293751 26.154375 -62.608124
37.294376 26.24 -62.611252
37.294376 26.325001 -62.603748
37.290627 26.409374 -62.61375
37.290001 26.494375 -62.615623
37.290001 26.578751 -62.618126
37.290001 26.661249 -62.630001
37.290001 26.745625 -62.6325
37.291248 26.831875 -62.627499
37.2925 26.918751 -62.615623
37.293125 27.000626 -62.605625
37.293125 27.085625 -62.601875
37.2925 27.173124 -62.590626
37.288124 27.2575 -62.590626
37.289375 27.344376 -62.573124
37.293751 27.43 -62.555
37.294376 27.514999 -62.552502
37.294998 27.6 -62.546249
37.296249 27.685625 -62.535
37.299374 27.773125 -62.523125
37.303749 27.859375 -62.509377
37.304375 27.945 -62.500626
37.305 28.030624 -62.48875
37.308125 28.118126 -62.473125
37.306873 28.205 -62.453125
37.305 28.290001 -62.448124
37.305 28.375 -62.448124
37.305 28.459999 -62.448124
37.305 28.545 -62.444374
37.795624 19.036249 -59.218124
37.786877 19.115625 -59.324375
37.770626 19.195625 -59.440624
37.755001 19.274376 -59.571877
37.735626 19.35125 -59.700001
37.720001 19.429375 -59.818127
37.703751 19.506874 -59.932499
37.694374 19.58625 -60.047501
37.681873 19.666876 -60.13625
37.671249 19.75 -60.233124
37.658749 19.829374 -60.341251
37.648125 19.905624 -60.48
37.635624 19.984375 -60.618126
37.628124 20.061251 -60.75
37.62875 20.139376 -60.869999
37.623123 20.216249 -60.9925
37.621876 20.295626 -61.089375
37.62125 20.375626 -61.16375
37.619373 20.456249 -61.226875
37.614376 20.53875 -61.28125
37.61375 20.620001 -61.328751
37.603127 20.70125 -61.3825
37.590626 20.784374 -61.435001
37.585625 20.869375 -61.453751
37.574375 20.955 -61.477501
37.563126 21.039375 -61.494373
37.547501 21.120001 -61.544998
37.540001 21.20125 -61.600624
37.534374 21.285 -61.626877
37.524376 21.369375 -61.660625
37.520626 21.450001 -61.704376
37.512501 21.531876 -61.751877
37.506874 21.614374 -61.790001
37.501877 21.696251 -61.826248
37.495625 21.779375 -61.87125
37.491875 21.860624 -61.906876
37.494999 21.945 -61.938751
37.497501 22.028749 -61.963123
37.493126 22.110624 -61.990623
37.483124 22.195 -62.021873
37.474377 22.279375 -62.049999
37.471874 22.360624 -62.078125
37.476875 22.445 -62.101875
37.473125 22.530001 -62.121876
37.464375 22.615 -62.138126
37.463123 22.699375 -62.141876
37.463749 22.780624 -62.154999
37.463749 22.865 -62.163124
37.460625 22.950001 -62.174999
37.455624 23.034374 -62.205002
37.455624 23.115625 -62.232498
37.450626 23.200001 -62.253124
37.445625 23.285 -62.266251
37.445 23.370001 -62.276875
37.445625 23.454374 -62.300625
37.441875 23.536249 -62.31625
37.441875 23.620625 -62.32
37.444374 23.705 -62.333752
37.445625 23.790001 -62.349377
37.444374 23.873751 -62.372501
37.448124 23.955626 -62.387501
37.448124 24.040001 -62.391876
37.444374 24.125 -62.40625
37.439377 24.209999 -62.421875
37.435623 24.295 -62.442501
37.435001 24.379999 -62.452499
37.43375 24.465 -62.4575
37.429375 24.54875 -62.474998
37.42625 24.63125 -62.494999
37.425625 24.715626 -62.498749
37.424999 24.799999 -62.500626
37.425625 24.885 -62.505001
37.426876 24.969999 -62.514374
37.431873 25.055 -62.509377
37.424999 25.139999 -62.521252
37.421249 25.224375 -62.539375
37.420624 25.306875 -62.55875
37.418125 25.390625 -62.571251
37.409374 25.475 -62.590626
37.408127 25.559999 -62.598125
37.41 25.645 -62.603748
37.414375 25.73 -62.599998
37.415627 25.815001 -62.601875
37.416874 25.9 -62.609375
37.419376 25.985001 -62.603748
37.4175 26.07 -62.609375
37.416874 26.155001 -62.611252
37.4175 26.24 -62.609375
37.419376 26.325001 -62.594376
37.416248 26.41 -62.596249
37.415001 26.495001 -62.599998
37.415001 26.58 -62.601875
37.414375 26.664375 -62.615623
37.414375 26.749374 -62.6175
37.413124 26.834375 -62.6175
37.408749 26.919374 -62.615002
37.407501 27.000626 -62.613125
37.408749 27.085625 -62.607498
37.41375 27.174376 -62.588749
37.413124 27.259375 -62.584999
37.412498 27.344999 -62.569374
37.415001 27.43 -62.555
37.415627 27.514999 -62.552502
37.416874 27.6 -62.548126
37.419998 27.684999 -62.536877
37.421249 27.771875 -62.529373
37.425625 27.859375 -62.514374
37.425625 27.945 -62.500626
37.42625 28.030001 -62.494373
37.431252 28.116875 -62.476875
37.436249 28.205 -62.44125
37.432499 28.290625 -62.433125
37.430626 28.375626 -62.435001
37.430626 28.460625 -62.435001
37.430626 28.546249 -62.433125
37.921249 19.124374 -59.190624
37.910625 19.204374 -59.32
37.894375 19.28125 -59.451874
37.873749 19.359375 -59.583126
37.861252 19.436874 -59.689999
37.849377 19.518126 -59.795624
37.836876 19.598749 -59.913124
37.82375 19.678749 -60.0075
37.809376 19.759375 -60.099998
37.793751 19.838751 -60.208752
37.780624 19.915625 -60.33625
37.766876 19.994375 -60.470001
37.759998 20.07 -60.616249
37.756874 20.14625 -60.75
37.75375 20.225 -60.863125
37.753124 20.305 -60.955002
37.749374 20.384375 -61.045624
37.744373 20.464375 -61.116249
37.738125 20.545 -61.181873
37.736252 20.626249 -61.236252
37.7225 20.708124 -61.30125
37.711876 20.7875 -61.369999
37.709999 20.87125 -61.393749
37.705002 20.959375 -61.421875
37.701248 21.043751 -61.434376
37.685001 21.124374 -61.483749
37.677502 21.205 -61.531876
37.669376 21.289375 -61.548752
37.661251 21.373751 -61.585625
37.658127 21.455 -61.633125
37.645 21.538124 -61.673126
37.6325 21.619375 -61.721249
37.621876 21.699375 -61.790001
37.61375 21.780624 -61.853748
37.611874 21.86125 -61.903126
37.615623 21.945 -61.936874
37.619373 22.029375 -61.958752
37.618752 22.110624 -61.988125
37.61375 22.195 -62.009998
37.605 22.279375 -62.041874
37.599377 22.360624 -62.074375
37.599998 22.445 -62.09375
37.594376 22.530001 -62.112499
37.583752 22.615 -62.135624
37.581875 22.699375 -62.143749
37.581875 22.780624 -62.166874
37.580624 22.865 -62.183125
37.579376 22.950001 -62.189377
37.577499 23.034374 -62.205002
37.578125 23.115625 -62.224998
37.571877 23.200001 -62.250626
37.57 23.285 -62.26125
37.570625 23.370001 -62.282501
37.573124 23.454374 -62.303123
37.570625 23.535625 -62.32
37.57 23.620001 -62.32375
37.569374 23.705 -62.335625
37.568748 23.790001 -62.342499
37.566875 23.874374 -62.358124
37.568748 23.955626 -62.381248
37.568127 24.040001 -62.389999
37.564999 24.125 -62.4025
37.563751 24.209999 -62.408749
37.563126 24.295 -62.425625
37.560001 24.379999 -62.446877
37.556252 24.465 -62.462502
37.555 24.549999 -62.467499
37.554375 24.634375 -62.471249
37.554375 24.71875 -62.475624
37.551876 24.800625 -62.486874
37.553123 24.885 -62.498123
37.552502 24.969999 -62.506874
37.552502 25.055 -62.506874
37.546875 25.139999 -62.521252
37.547501 25.225 -62.533127
37.547501 25.30875 -62.543751
37.544376 25.390625 -62.567501
37.539375 25.475 -62.583126
37.540001 25.559999 -62.584999
37.543125 25.645624 -62.576874
37.541874 25.73 -62.584999
37.541248 25.815001 -62.598125
37.544376 25.9 -62.609375
37.548126 25.985001 -62.599998
37.548126 26.07 -62.599998
37.548126 26.155001 -62.599998
37.548752 26.24 -62.598125
37.548126 26.325001 -62.594376
37.543751 26.41 -62.579376
37.540001 26.495001 -62.584999
37.537498 26.58 -62.592499
37.535625 26.665001 -62.611252
37.535 26.75 -62.615002
37.535 26.834999 -62.615002
37.534374 26.919374 -62.613125
37.533749 27.000626 -62.613125
37.533749 27.085625 -62.603748
37.534374 27.17375 -62.588749
37.535 27.259375 -62.584999
37.537498 27.344999 -62.571877
37.539375 27.43 -62.564999
37.540001 27.514999 -62.5625
37.543751 27.6 -62.553123
37.547501 27.685625 -62.536877
37.546249 27.773125 -62.523125
37.551876 27.860001 -62.505627
37.549999 27.945 -62.48875
37.549999 28.030624 -62.485001
37.555 28.119375 -62.467499
37.563126 28.208124 -62.428123
37.5625 28.294374 -62.414375
37.559376 28.37875 -62.421875
37.55875 28.463751 -62.423752
37.559376 28.54875 -62.421875
38.040627 19.290625 -59.307499
38.021252 19.36875 -59.446877
38.009377 19.445625 -59.557499
37.998123 19.525 -59.661251
37.983749 19.605625 -59.773125
37.966251 19.685625 -59.884998
37.950626 19.764999 -59.985626
37.9375 19.845625 -60.087502
37.919998 19.924999 -60.193127
37.903126 20.00375 -60.313126
37.895 20.08 -60.470001
37.888126 20.155624 -60.61375
37.881874 20.235001 -60.720001
37.880627 20.314375 -60.817501
37.876877 20.391251 -60.922501
37.869999 20.470625 -61.000626
37.864376 20.55125 -61.076248
37.859375 20.633751 -61.140625
37.846249 20.715 -61.213749
37.836876 20.794374 -61.286877
37.834373 20.876249 -61.317501
37.831875 20.963751 -61.346874
37.830624 21.045626 -61.373123
37.813126 21.125626 -61.439999
37.805 21.206249 -61.501251
37.80125 21.290625 -61.521873
37.798126 21.374374 -61.549999
37.794998 21.456249 -61.595001
37.78125 21.539375 -61.640625
37.768749 21.620001 -61.6875
37.756248 21.70125 -61.748749
37.74625 21.783751 -61.811874
37.741249 21.865 -61.869373
37.740623 21.946251 -61.916248
37.740002 22.029375 -61.946877
37.740623 22.110624 -61.985626
37.741249 22.195 -62.0075
37.733124 22.279375 -62.040001
37.724377 22.360624 -62.081875
37.723751 22.445 -62.103748
37.719376 22.530001 -62.121876
37.710625 22.615 -62.138126
37.709373 22.699375 -62.143749
37.7075 22.780624 -62.166874
37.702499 22.865 -62.1875
37.701248 22.950001 -62.193748
37.701874 23.033751 -62.206875
37.702499 23.115625 -62.226875
37.696251 23.200001 -62.250626
37.694374 23.285 -62.258751
37.695 23.370001 -62.273125
37.69875 23.454374 -62.294998
37.69875 23.536249 -62.32375
37.697498 23.620625 -62.331875
37.692501 23.705 -62.3475
37.689999 23.790001 -62.352501
37.688126 23.874374 -62.360626
37.685001 23.955626 -62.38625
37.681873 24.040001 -62.400002
37.681252 24.125 -62.406876
37.681873 24.209999 -62.408749
37.684376 24.295 -62.419998
37.685001 24.379999 -62.435001
37.680626 24.465 -62.44875
37.679375 24.549999 -62.452499
37.68 24.635 -62.455002
37.681873 24.719376 -62.466873
37.678123 24.800625 -62.485001
37.674374 24.885 -62.500626
37.669376 24.969999 -62.521873
37.6675 25.055 -62.528751
37.665001 25.139999 -62.533127
37.665627 25.225 -62.535
37.665627 25.309376 -62.539375
37.665627 25.391251 -62.563126
37.665627 25.475624 -62.571251
37.669376 25.560625 -62.576874
37.675625 25.648125 -62.559376
37.672501 25.730625 -62.571251
37.669376 25.815001 -62.584999
37.669998 25.9 -62.596249
37.669998 25.985001 -62.586876
37.669376 26.07 -62.584999
37.669998 26.155001 -62.583126
37.671875 26.24 -62.579376
37.668751 26.325001 -62.592499
37.664375 26.41 -62.579376
37.659374 26.495001 -62.586876
37.654373 26.58 -62.598125
37.654999 26.665001 -62.611252
37.656876 26.75 -62.613125
37.657501 26.834999 -62.611252
37.659374 26.919374 -62.605625
37.65625 27.000626 -62.613125
37.654373 27.084999 -62.61375
37.651249 27.170626 -62.601875
37.653126 27.256874 -62.590626
37.656876 27.344376 -62.571251
37.66 27.43 -62.557499
37.660625 27.514999 -62.555
37.665001 27.6 -62.558125
37.668125 27.684999 -62.546875
37.666874 27.77125 -62.533127
37.671875 27.858749 -62.516876
37.670624 27.945 -62.491249
37.671249 28.030624 -62.483124
37.67625 28.119375 -62.467499
37.68375 28.206249 -62.435623
37.684376 28.293125 -62.423752
37.681252 28.376875 -62.429375
37.680626 28.46125 -62.431252
37.680626 28.546875 -62.427502
38.168751 19.376249 -59.303123
38.153751 19.453751 -59.435001
38.139999 19.531876 -59.549374
38.128124 19.61375 -59.645
38.110001 19.69375 -59.753124
38.090626 19.771875 -59.857498
38.078125 19.85375 -59.9575
38.061249 19.93375 -60.055
38.044998 20.01125 -60.165001
38.030624 20.089375 -60.325626
38.018124 20.165625 -60.469376
38.011875 20.244375 -60.57
38.012501 20.32375 -60.664375
38.010624 20.400625 -60.771873
37.998123 20.48 -60.865002
37.990623 20.559999 -60.953125
37.985001 20.640625 -61.038124
37.975624 20.720625 -61.111874
37.966251 20.800625 -61.18
37.961876 20.881874 -61.227501
37.959999 20.96875 -61.263748
37.9575 21.049999 -61.305626
37.942501 21.129999 -61.376251
37.93375 21.210625 -61.438126
37.933125 21.294374 -61.468124
37.926876 21.376249 -61.511875
37.921875 21.45875 -61.561249
37.91375 21.540625 -61.613125
37.903751 21.62125 -61.674374
37.893124 21.703751 -61.728127
37.883751 21.785625 -61.77375
37.875 21.86875 -61.817501
37.868126 21.949375 -61.877499
37.860626 22.030001 -61.934376
37.859375 22.110624 -61.983749
37.860001 22.195 -62.005627
37.856251 22.279375 -62.032501
37.852501 22.360624 -62.074375
37.849377 22.445 -62.103748
37.84375 22.530001 -62.124374
37.835625 22.615 -62.138126
37.833752 22.699375 -62.141876
37.831249 22.780624 -62.161251
37.828751 22.865 -62.1875
37.825001 22.949375 -62.201248
37.82 23.03125 -62.220627
